VERSION 0.7
FIELDS x y z red green blue intensity returnnumber numberofreturns scandirectionflag edgeofflightline classification scananglerank userdata pointsourceid
SIZE 4 4 4 2 2 2 8 8 8 8 8 8 8 8 8
TYPE F F F U U U F F F F F F F F F
COUNT 1 1 1 1 1 1 1 1 1 1 1 1 1 1 1
WIDTH 485
HEIGHT 1
VIEWPOINT 0.0 0.0 0.0 1.0 0.0 0.0 0.0
POINTS 485
DATA ascii
2571286.50 1096264.50 2273.31 23130 21588 24672 22359.00 1.00 1.00 1.00 0.00 5.00 0.00 0.00 1.00 
2571290.25 1096266.38 2275.23 15163 16448 23387 16705.00 1.00 1.00 1.00 0.00 4.00 0.00 0.00 1.00 
2571290.00 1096266.00 2275.63 13878 15163 22359 15420.00 1.00 1.00 1.00 0.00 5.00 0.00 0.00 1.00 
2571289.75 1096265.75 2275.18 13621 15420 22873 15677.00 1.00 1.00 1.00 0.00 4.00 0.00 0.00 1.00 
2571289.50 1096265.38 2275.28 14135 15677 22616 15934.00 1.00 1.00 1.00 0.00 4.00 0.00 0.00 1.00 
2571289.25 1096265.00 2276.17 16448 17990 25186 18247.00 1.00 1.00 1.00 0.00 5.00 0.00 0.00 1.00 
2571289.25 1096265.00 2275.18 24672 25957 33410 26214.00 1.00 1.00 1.00 0.00 4.00 0.00 0.00 1.00 
2571289.00 1096264.62 2275.28 15934 17219 24415 17476.00 1.00 1.00 1.00 0.00 5.00 0.00 0.00 1.00 
2571288.75 1096264.38 2275.13 16962 18761 26214 19018.00 1.00 1.00 1.00 0.00 5.00 0.00 0.00 1.00 
2571287.75 1096262.88 2273.95 14392 15934 23130 16191.00 1.00 1.00 1.00 0.00 5.00 0.00 0.00 1.00 
2571287.50 1096262.50 2274.44 13107 15163 22616 15163.00 1.00 1.00 1.00 0.00 5.00 0.00 0.00 1.00 
2571290.25 1096264.75 2275.58 13878 15677 23130 15934.00 1.00 1.00 1.00 0.00 4.00 0.00 0.00 1.00 
2571290.00 1096264.38 2275.92 13621 15420 23644 15677.00 1.00 1.00 1.00 0.00 4.00 0.00 0.00 1.00 
2571289.75 1096264.00 2276.56 14392 15934 23644 16191.00 1.00 1.00 1.00 0.00 5.00 0.00 0.00 1.00 
2571289.50 1096263.62 2276.81 13621 15934 23130 15934.00 1.00 1.00 1.00 0.00 5.00 0.00 0.00 1.00 
2571289.25 1096263.38 2276.12 12079 13878 21588 14135.00 1.00 1.00 1.00 0.00 5.00 0.00 0.00 1.00 
2571289.00 1096262.88 2273.70 15934 17219 24672 17476.00 1.00 1.00 1.00 0.00 4.00 0.00 0.00 1.00 
2571288.75 1096262.50 2274.10 18504 19018 25186 19532.00 1.00 1.00 1.00 0.00 4.00 0.00 0.00 1.00 
2571288.50 1096262.25 2275.53 17733 18247 24929 18761.00 1.00 1.00 1.00 0.00 5.00 0.00 0.00 1.00 
2571288.50 1096262.12 2274.00 19018 20046 26985 20303.00 1.00 1.00 1.00 0.00 4.00 0.00 0.00 1.00 
2571288.25 1096261.88 2275.87 22873 22359 27242 22873.00 1.00 1.00 1.00 0.00 5.00 0.00 0.00 1.00 
2571288.00 1096261.50 2275.68 20817 20817 26214 21331.00 1.00 1.00 1.00 0.00 5.00 0.00 0.00 1.00 
2571287.75 1096261.25 2275.38 17990 18761 24415 19018.00 1.00 1.00 1.00 0.00 5.00 0.00 0.00 1.00 
2571289.50 1096261.75 2276.86 14649 16448 23901 16705.00 1.00 1.00 1.00 0.00 5.00 0.00 0.00 1.00 
2571289.25 1096261.50 2276.96 13364 15163 22873 15420.00 1.00 1.00 1.00 0.00 5.00 0.00 0.00 1.00 
2571289.00 1096261.00 2274.84 15934 17219 24158 17476.00 1.00 1.00 1.00 0.00 4.00 0.00 0.00 1.00 
2571290.75 1096261.75 2276.22 20046 21331 29298 21588.00 1.00 1.00 1.00 0.00 4.00 0.00 0.00 1.00 
2571290.50 1096261.38 2276.61 15420 16962 23644 17219.00 1.00 1.00 1.00 0.00 4.00 0.00 0.00 1.00 
2571290.25 1096261.00 2277.35 13621 15163 22616 15420.00 1.00 1.00 1.00 0.00 4.00 0.00 0.00 1.00 
2571290.00 1096260.75 2277.21 13364 14906 22359 15163.00 1.00 1.00 1.00 0.00 20.00 0.00 0.00 1.00 
2571289.75 1096260.38 2277.40 15420 16962 24672 17219.00 1.00 1.00 1.00 0.00 4.00 0.00 0.00 1.00 
2571289.50 1096260.12 2277.90 18247 19789 26728 20046.00 1.00 1.00 1.00 0.00 5.00 0.00 0.00 1.00 
2571291.50 1096261.25 2280.17 14649 15677 22873 15934.00 1.00 1.00 1.00 0.00 21.00 0.00 0.00 1.00 
2571291.25 1096260.88 2280.12 14906 16448 23130 16705.00 1.00 1.00 1.00 0.00 5.00 0.00 0.00 1.00 
2571291.00 1096260.62 2280.76 15163 16448 22102 16448.00 1.00 1.00 1.00 0.00 5.00 0.00 0.00 1.00 
2571291.00 1096260.50 2279.97 16448 17733 25186 17990.00 1.00 1.00 1.00 0.00 5.00 0.00 0.00 1.00 
2571290.75 1096260.25 2280.71 17733 17476 21331 17733.00 1.00 1.00 1.00 0.00 5.00 0.00 0.00 1.00 
2571290.50 1096259.88 2280.61 24929 22359 24929 23387.00 1.00 1.00 1.00 0.00 5.00 0.00 0.00 1.00 
2571291.25 1096259.50 2282.19 34952 29812 29298 31097.00 1.00 1.00 1.00 0.00 5.00 0.00 0.00 1.00 
2571291.25 1096259.62 2283.62 49601 40349 37008 42662.00 1.00 1.00 1.00 0.00 5.00 0.00 0.00 1.00 
2571291.25 1096259.88 2283.08 49601 41120 37779 43176.00 1.00 1.00 1.00 0.00 21.00 0.00 0.00 1.00 
2571291.50 1096260.00 2282.34 37522 32639 31611 33924.00 1.00 1.00 1.00 0.00 5.00 0.00 0.00 1.00 
2571290.75 1096260.38 2280.12 18504 18504 24415 19018.00 1.00 1.00 1.00 0.00 5.00 0.00 0.00 1.00 
2571291.00 1096260.75 2280.17 15163 16191 22873 16448.00 1.00 1.00 1.00 0.00 5.00 0.00 0.00 1.00 
2571291.25 1096261.12 2280.17 14649 16191 22616 16191.00 1.00 1.00 1.00 0.00 5.00 0.00 0.00 1.00 
2571291.50 1096261.25 2279.72 15677 16962 23644 17219.00 1.00 1.00 1.00 0.00 5.00 0.00 0.00 1.00 
2571291.00 1096260.75 2278.09 22359 22102 26728 22616.00 1.00 1.00 1.00 0.00 4.00 0.00 0.00 1.00 
2571291.25 1096261.12 2277.99 20046 20303 27242 20817.00 1.00 1.00 1.00 0.00 4.00 0.00 0.00 1.00 
2571291.50 1096261.38 2277.70 19018 19275 27242 20046.00 1.00 1.00 1.00 0.00 4.00 0.00 0.00 1.00 
2571290.25 1096260.75 2279.57 16705 17990 25186 18247.00 1.00 1.00 1.00 0.00 5.00 0.00 0.00 1.00 
2571290.00 1096260.12 2277.85 16962 18761 26214 19018.00 1.00 1.00 1.00 0.00 4.00 0.00 0.00 1.00 
2571290.00 1096260.38 2277.30 13621 15163 22359 15420.00 1.00 1.00 1.00 0.00 4.00 0.00 0.00 1.00 
2571290.25 1096260.62 2277.11 13107 14649 22102 14906.00 1.00 1.00 1.00 0.00 4.00 0.00 0.00 1.00 
2571290.50 1096261.00 2276.91 14392 16191 23387 16191.00 1.00 1.00 1.00 0.00 4.00 0.00 0.00 1.00 
2571291.00 1096261.88 2276.32 17733 19018 26471 19275.00 1.00 1.00 1.00 0.00 4.00 0.00 0.00 1.00 
2571289.75 1096260.88 2277.35 12850 15163 22359 15163.00 1.00 1.00 1.00 0.00 21.00 0.00 0.00 1.00 
2571289.75 1096261.25 2277.06 13878 16191 23644 16191.00 1.00 1.00 1.00 0.00 4.00 0.00 0.00 1.00 
2571290.00 1096261.50 2276.76 15163 16448 23901 16705.00 1.00 1.00 1.00 0.00 4.00 0.00 0.00 1.00 
2571290.25 1096261.75 2276.42 16962 18504 25700 18761.00 1.00 1.00 1.00 0.00 4.00 0.00 0.00 1.00 
2571289.25 1096261.50 2276.56 13107 15163 22616 15163.00 1.00 1.00 1.00 0.00 5.00 0.00 0.00 1.00 
2571289.50 1096261.88 2276.42 10280 12079 19532 12336.00 1.00 1.00 1.00 0.00 5.00 0.00 0.00 1.00 
2571289.75 1096261.88 2275.43 18247 19275 26985 19789.00 1.00 1.00 1.00 0.00 4.00 0.00 0.00 1.00 
2571288.25 1096261.00 2275.77 16962 17990 24415 18247.00 1.00 1.00 1.00 0.00 21.00 0.00 0.00 1.00 
2571288.50 1096261.38 2275.82 19789 19789 25700 20303.00 1.00 1.00 1.00 0.00 5.00 0.00 0.00 1.00 
2571288.75 1096261.75 2275.53 18504 19018 25700 19532.00 1.00 1.00 1.00 0.00 4.00 0.00 0.00 1.00 
2571288.75 1096262.00 2275.13 17476 17990 23901 18247.00 1.00 1.00 1.00 0.00 4.00 0.00 0.00 1.00 
2571288.75 1096261.88 2273.85 18504 19789 25957 20046.00 1.00 1.00 1.00 0.00 4.00 0.00 0.00 1.00 
2571289.75 1096263.38 2277.06 14649 16448 23901 16705.00 1.00 1.00 1.00 0.00 5.00 0.00 0.00 1.00 
2571289.00 1096262.38 2274.24 12593 14135 20560 14135.00 1.00 1.00 1.00 0.00 4.00 0.00 0.00 1.00 
2571289.75 1096263.38 2276.12 14392 15934 23644 16191.00 1.00 1.00 1.00 0.00 5.00 0.00 0.00 1.00 
2571289.25 1096262.75 2274.34 12336 14906 21845 14649.00 1.00 1.00 1.00 0.00 4.00 0.00 0.00 1.00 
2571289.75 1096263.38 2274.79 25700 28270 37008 28270.00 1.00 1.00 1.00 0.00 4.00 0.00 0.00 1.00 
2571290.00 1096263.88 2275.28 15677 17476 25186 17733.00 1.00 1.00 1.00 0.00 4.00 0.00 0.00 1.00 
2571290.25 1096264.00 2274.49 15934 17219 25186 17476.00 1.00 1.00 1.00 0.00 4.00 0.00 0.00 1.00 
2571287.50 1096261.25 2275.48 16962 18247 24672 18504.00 1.00 1.00 1.00 0.00 5.00 0.00 0.00 1.00 
2571287.75 1096261.50 2275.08 13364 14649 20303 14649.00 1.00 1.00 1.00 0.00 21.00 0.00 0.00 1.00 
2571288.25 1096262.12 2275.77 21331 21331 27499 21845.00 1.00 1.00 1.00 0.00 5.00 0.00 0.00 1.00 
2571288.25 1096262.25 2275.28 16705 17733 24672 17990.00 1.00 1.00 1.00 0.00 5.00 0.00 0.00 1.00 
2571288.00 1096261.75 2273.50 16962 18504 24415 18504.00 1.00 1.00 1.00 0.00 4.00 0.00 0.00 1.00 
2571288.25 1096262.12 2273.60 20303 21331 29555 21845.00 1.00 1.00 1.00 0.00 4.00 0.00 0.00 1.00 
2571289.25 1096263.62 2276.86 12850 14906 22359 14906.00 1.00 1.00 1.00 0.00 5.00 0.00 0.00 1.00 
2571288.50 1096262.50 2273.65 14649 15934 21331 15934.00 1.00 1.00 1.00 0.00 4.00 0.00 0.00 1.00 
2571289.50 1096264.00 2276.86 14135 15934 23644 16191.00 1.00 1.00 1.00 0.00 5.00 0.00 0.00 1.00 
2571289.50 1096264.25 2276.51 13107 14906 22359 15163.00 1.00 1.00 1.00 0.00 5.00 0.00 0.00 1.00 
2571289.75 1096264.62 2276.46 14392 16191 23901 16448.00 1.00 1.00 1.00 0.00 5.00 0.00 0.00 1.00 
2571290.00 1096264.75 2275.67 13621 15420 23130 15677.00 1.00 1.00 1.00 0.00 4.00 0.00 0.00 1.00 
2571290.00 1096265.00 2275.23 14135 15934 23387 16191.00 1.00 1.00 1.00 0.00 4.00 0.00 0.00 1.00 
2571290.50 1096265.38 2275.43 14135 15677 23130 15934.00 1.00 1.00 1.00 0.00 4.00 0.00 0.00 1.00 
2571290.50 1096265.62 2275.18 15677 16962 24415 17219.00 1.00 1.00 1.00 0.00 4.00 0.00 0.00 1.00 
2571290.75 1096265.88 2274.54 19018 19532 26471 20046.00 1.00 1.00 1.00 0.00 4.00 0.00 0.00 1.00 
2571291.00 1096266.25 2274.59 22102 22102 28270 22616.00 1.00 1.00 1.00 0.00 4.00 0.00 0.00 1.00 
2571287.50 1096262.38 2274.29 12850 15163 22359 15163.00 1.00 1.00 1.00 0.00 5.00 0.00 0.00 1.00 
2571287.75 1096262.62 2273.85 19275 20046 26985 20560.00 1.00 1.00 1.00 0.00 4.00 0.00 0.00 1.00 
2571288.75 1096264.38 2275.53 14392 16191 23644 16448.00 1.00 1.00 1.00 0.00 5.00 0.00 0.00 1.00 
2571289.00 1096264.62 2275.08 14906 17219 24158 17219.00 1.00 1.00 1.00 0.00 5.00 0.00 0.00 1.00 
2571289.25 1096265.00 2275.03 24158 25700 33410 25957.00 1.00 1.00 1.00 0.00 4.00 0.00 0.00 1.00 
2571289.50 1096265.38 2275.23 13621 15420 22102 15420.00 1.00 1.00 1.00 0.00 20.00 0.00 0.00 1.00 
2571290.00 1096265.88 2275.43 13364 14649 21845 14906.00 1.00 1.00 1.00 0.00 20.00 0.00 0.00 1.00 
2571290.25 1096266.25 2275.48 14392 15934 22873 16191.00 1.00 1.00 1.00 0.00 5.00 0.00 0.00 1.00 
2571290.25 1096266.50 2275.03 14649 15934 22873 16191.00 1.00 1.00 1.00 0.00 4.00 0.00 0.00 1.00 
2571289.25 1096266.12 2273.75 15420 16448 23901 16705.00 1.00 1.00 1.00 0.00 20.00 0.00 0.00 1.00 
2571287.25 1096264.50 2273.70 22359 21331 25700 22102.00 1.00 1.00 1.00 0.00 5.00 0.00 0.00 1.00 
2571286.50 1096264.62 2273.50 29041 26214 28270 27242.00 1.00 1.00 1.00 0.00 5.00 0.00 0.00 1.00 
2571286.75 1096264.88 2273.11 22616 21588 25186 22102.00 1.00 1.00 1.00 0.00 21.00 0.00 0.00 1.00 
2571287.25 1096265.50 2273.70 24415 22616 25957 23387.00 1.00 1.00 1.00 0.00 5.00 0.00 0.00 1.00 
2571291.25 1096260.00 2281.40 32125 27242 27756 28527.00 1.00 1.00 1.00 0.00 5.00 0.00 0.00 1.00 
2571291.25 1096260.00 2282.29 38550 32382 30840 33924.00 1.00 1.00 1.00 0.00 5.00 0.00 0.00 1.00 
2571291.25 1096260.12 2283.28 48830 40092 36751 42148.00 1.00 1.00 1.00 0.00 5.00 0.00 0.00 1.00 
2571289.75 1096259.88 2278.04 18761 20303 27756 20560.00 1.00 1.00 1.00 0.00 4.00 0.00 0.00 1.00 
2571290.25 1096260.00 2278.34 19018 20303 28270 20560.00 1.00 1.00 1.00 0.00 20.00 0.00 0.00 1.00 
2571290.25 1096260.12 2279.43 15934 16962 23901 17219.00 1.00 1.00 1.00 0.00 5.00 0.00 0.00 1.00 
2571290.50 1096260.25 2279.92 14392 15677 22102 15934.00 1.00 1.00 1.00 0.00 21.00 0.00 0.00 1.00 
2571291.00 1096260.50 2280.12 18247 18247 23644 18761.00 1.00 1.00 1.00 0.00 5.00 0.00 0.00 1.00 
2571291.50 1096260.75 2280.31 15677 16705 23130 16962.00 1.00 1.00 1.00 0.00 5.00 0.00 0.00 1.00 
2571291.25 1096260.75 2281.50 16705 16705 22359 17219.00 1.00 1.00 1.00 0.00 5.00 0.00 0.00 1.00 
2571289.75 1096260.50 2276.96 15420 17219 24672 17476.00 1.00 1.00 1.00 0.00 4.00 0.00 0.00 1.00 
2571290.25 1096260.75 2277.25 12593 13878 21331 14135.00 1.00 1.00 1.00 0.00 4.00 0.00 0.00 1.00 
2571290.25 1096260.75 2278.39 14135 15934 22873 15934.00 1.00 1.00 1.00 0.00 5.00 0.00 0.00 1.00 
2571291.00 1096261.12 2277.06 18504 20046 27499 20303.00 1.00 1.00 1.00 0.00 4.00 0.00 0.00 1.00 
2571290.25 1096260.88 2279.23 16705 17990 24415 18247.00 1.00 1.00 1.00 0.00 5.00 0.00 0.00 1.00 
2571291.00 1096261.25 2277.65 16705 17990 24929 18247.00 1.00 1.00 1.00 0.00 4.00 0.00 0.00 1.00 
2571290.75 1096261.00 2279.62 16962 17990 25443 18247.00 1.00 1.00 1.00 0.00 5.00 0.00 0.00 1.00 
2571291.00 1096261.25 2279.92 14649 16448 23130 16448.00 1.00 1.00 1.00 0.00 5.00 0.00 0.00 1.00 
2571289.75 1096261.00 2275.87 14392 16705 24672 16705.00 1.00 1.00 1.00 0.00 4.00 0.00 0.00 1.00 
2571289.75 1096261.00 2277.16 11565 13878 20817 13878.00 1.00 1.00 1.00 0.00 4.00 0.00 0.00 1.00 
2571290.00 1096261.12 2277.80 13107 14906 22616 15163.00 1.00 1.00 1.00 0.00 5.00 0.00 0.00 1.00 
2571290.75 1096261.50 2276.46 21074 22359 29298 22616.00 1.00 1.00 1.00 0.00 4.00 0.00 0.00 1.00 
2571288.25 1096261.00 2275.68 16962 17990 24415 18247.00 1.00 1.00 1.00 0.00 21.00 0.00 0.00 1.00 
2571288.75 1096261.25 2274.54 16191 17733 25186 17990.00 1.00 1.00 1.00 0.00 4.00 0.00 0.00 1.00 
2571288.75 1096261.38 2275.53 16448 17733 24415 17990.00 1.00 1.00 1.00 0.00 4.00 0.00 0.00 1.00 
2571289.00 1096261.50 2276.12 13364 15163 22359 15163.00 1.00 1.00 1.00 0.00 5.00 0.00 0.00 1.00 
2571289.25 1096261.62 2276.76 12850 14906 22102 14906.00 1.00 1.00 1.00 0.00 5.00 0.00 0.00 1.00 
2571289.50 1096261.75 2277.35 12850 14649 22102 14906.00 1.00 1.00 1.00 0.00 5.00 0.00 0.00 1.00 
2571287.75 1096261.50 2275.48 20046 20046 25443 20560.00 1.00 1.00 1.00 0.00 5.00 0.00 0.00 1.00 
2571288.50 1096261.88 2274.10 18247 19275 26214 19532.00 1.00 1.00 1.00 0.00 4.00 0.00 0.00 1.00 
2571288.25 1096261.75 2275.92 23130 22616 28013 23130.00 1.00 1.00 1.00 0.00 21.00 0.00 0.00 1.00 
2571289.00 1096262.12 2274.39 20560 21845 28527 22102.00 1.00 1.00 1.00 0.00 4.00 0.00 0.00 1.00 
2571288.50 1096262.00 2276.27 22616 22359 27499 22873.00 1.00 1.00 1.00 0.00 5.00 0.00 0.00 1.00 
2571289.75 1096262.62 2274.74 17733 20046 27756 20046.00 1.00 1.00 1.00 0.00 20.00 0.00 0.00 1.00 
2571288.25 1096262.50 2273.75 15934 17733 25186 17990.00 1.00 1.00 1.00 0.00 4.00 0.00 0.00 1.00 
2571288.00 1096262.38 2275.48 16448 17476 24672 17733.00 1.00 1.00 1.00 0.00 5.00 0.00 0.00 1.00 
2571289.50 1096263.12 2274.69 11822 14649 22359 14392.00 1.00 1.00 1.00 0.00 4.00 0.00 0.00 1.00 
2571289.50 1096263.12 2275.82 14135 15677 23644 15934.00 1.00 1.00 1.00 0.00 5.00 0.00 0.00 1.00 
2571289.75 1096263.25 2276.42 12850 14392 22102 14649.00 1.00 1.00 1.00 0.00 5.00 0.00 0.00 1.00 
2571288.50 1096263.12 2274.49 14649 16705 24158 16705.00 1.00 1.00 1.00 0.00 4.00 0.00 0.00 1.00 
2571289.00 1096263.38 2274.84 12336 14392 21845 14392.00 1.00 1.00 1.00 0.00 20.00 0.00 0.00 1.00 
2571289.00 1096263.38 2275.72 12850 14906 22616 14906.00 1.00 1.00 1.00 0.00 5.00 0.00 0.00 1.00 
2571289.25 1096263.62 2276.42 12336 14392 21845 14392.00 1.00 1.00 1.00 0.00 5.00 0.00 0.00 1.00 
2571289.50 1096263.62 2277.06 11822 13621 20817 13621.00 1.00 1.00 1.00 0.00 5.00 0.00 0.00 1.00 
2571288.50 1096263.88 2274.44 16191 17990 25957 18247.00 1.00 1.00 1.00 0.00 5.00 0.00 0.00 1.00 
2571288.75 1096264.12 2275.13 14649 16448 24158 16705.00 1.00 1.00 1.00 0.00 5.00 0.00 0.00 1.00 
2571289.00 1096264.12 2275.92 13364 15420 22616 15420.00 1.00 1.00 1.00 0.00 5.00 0.00 0.00 1.00 
2571289.25 1096264.25 2276.61 13364 15677 23130 15677.00 1.00 1.00 1.00 0.00 5.00 0.00 0.00 1.00 
2571289.50 1096264.50 2276.96 14135 15934 23387 16191.00 1.00 1.00 1.00 0.00 5.00 0.00 0.00 1.00 
2571290.50 1096265.62 2275.38 13621 15163 22616 15420.00 1.00 1.00 1.00 0.00 4.00 0.00 0.00 1.00 
2571288.75 1096264.62 2274.54 18504 19789 26471 20046.00 1.00 1.00 1.00 0.00 5.00 0.00 0.00 1.00 
2571289.00 1096264.75 2275.18 20560 21845 29555 22102.00 1.00 1.00 1.00 0.00 5.00 0.00 0.00 1.00 
2571289.50 1096265.00 2275.23 23644 24158 30583 24672.00 1.00 1.00 1.00 0.00 4.00 0.00 0.00 1.00 
2571289.25 1096265.00 2276.42 14649 16191 23387 16448.00 1.00 1.00 1.00 0.00 5.00 0.00 0.00 1.00 
2571290.00 1096265.38 2275.18 13107 15163 22616 15163.00 1.00 1.00 1.00 0.00 4.00 0.00 0.00 1.00 
2571287.25 1096264.50 2272.91 19018 18761 24672 19275.00 1.00 1.00 1.00 0.00 5.00 0.00 0.00 1.00 
2571287.25 1096264.62 2273.85 23130 22102 26471 22873.00 1.00 1.00 1.00 0.00 5.00 0.00 0.00 1.00 
2571289.75 1096265.75 2273.75 13621 14906 22102 15163.00 1.00 1.00 1.00 0.00 4.00 0.00 0.00 1.00 
2571289.50 1096265.75 2275.03 13878 15420 22873 15677.00 1.00 1.00 1.00 0.00 4.00 0.00 0.00 1.00 
2571289.75 1096265.88 2275.58 14135 15677 22873 15934.00 1.00 1.00 1.00 0.00 5.00 0.00 0.00 1.00 
2571290.00 1096266.00 2276.22 13878 15677 22102 15677.00 1.00 1.00 1.00 0.00 5.00 0.00 0.00 1.00 
2571286.50 1096264.62 2273.26 31354 28270 29298 29298.00 1.00 1.00 1.00 0.00 21.00 0.00 0.00 1.00 
2571286.75 1096264.88 2273.70 30326 27242 29041 28270.00 1.00 1.00 1.00 0.00 5.00 0.00 0.00 1.00 
2571287.00 1096265.00 2274.54 31097 27499 28784 28527.00 1.00 1.00 1.00 0.00 5.00 0.00 0.00 1.00 
2571289.50 1096266.38 2274.74 13878 15163 22616 15420.00 1.00 1.00 1.00 0.00 4.00 0.00 0.00 1.00 
2571289.75 1096266.50 2275.48 14649 15934 22873 16191.00 1.00 1.00 1.00 0.00 5.00 0.00 0.00 1.00 
2571287.00 1096265.50 2274.05 26985 25186 28013 25957.00 1.00 1.00 1.00 0.00 5.00 0.00 0.00 1.00 
2571286.75 1096265.38 2273.70 32639 28784 30069 30069.00 1.00 1.00 1.00 0.00 5.00 0.00 0.00 1.00 
2571286.50 1096265.12 2273.16 30069 26985 28527 28013.00 1.00 1.00 1.00 0.00 5.00 0.00 0.00 1.00 
2571286.00 1096265.00 2273.21 31097 28013 29555 29041.00 1.00 1.00 1.00 0.00 21.00 0.00 0.00 1.00 
2571287.00 1096266.00 2274.14 22873 22359 27499 22873.00 1.00 1.00 1.00 0.00 5.00 0.00 0.00 1.00 
2571289.75 1096266.75 2274.79 16962 18247 25443 18504.00 1.00 1.00 1.00 0.00 5.00 0.00 0.00 1.00 
2571287.25 1096265.25 2274.49 31354 27756 29812 29041.00 1.00 1.00 1.00 0.00 21.00 0.00 0.00 1.00 
2571287.50 1096265.50 2272.91 31354 31354 37008 31868.00 1.00 1.00 1.00 0.00 21.00 0.00 0.00 1.00 
2571287.00 1096265.12 2273.16 27499 24929 28013 25957.00 1.00 1.00 1.00 0.00 5.00 0.00 0.00 1.00 
2571286.50 1096264.88 2273.36 31354 27499 28784 28784.00 1.00 1.00 1.00 0.00 5.00 0.00 0.00 1.00 
2571290.25 1096266.62 2275.43 15934 17219 24158 17476.00 1.00 1.00 1.00 0.00 5.00 0.00 0.00 1.00 
2571290.00 1096266.38 2275.43 14392 15934 23130 16191.00 1.00 1.00 1.00 0.00 21.00 0.00 0.00 1.00 
2571289.50 1096266.25 2274.89 14135 15677 22873 15934.00 1.00 1.00 1.00 0.00 4.00 0.00 0.00 1.00 
2571289.50 1096266.12 2273.80 14392 15677 22873 15934.00 1.00 1.00 1.00 0.00 4.00 0.00 0.00 1.00 
2571288.75 1096265.75 2272.91 25700 26471 33153 26728.00 1.00 1.00 1.00 0.00 4.00 0.00 0.00 1.00 
2571287.75 1096265.00 2273.95 26985 24158 26471 25186.00 1.00 1.00 1.00 0.00 5.00 0.00 0.00 1.00 
2571290.25 1096266.25 2275.97 15163 16705 23901 16962.00 1.00 1.00 1.00 0.00 5.00 0.00 0.00 1.00 
2571289.75 1096266.00 2275.43 14135 15420 22873 15677.00 1.00 1.00 1.00 0.00 5.00 0.00 0.00 1.00 
2571289.50 1096265.88 2274.84 13364 14906 21845 15163.00 1.00 1.00 1.00 0.00 4.00 0.00 0.00 1.00 
2571289.50 1096265.75 2273.60 14392 15934 23130 16191.00 1.00 1.00 1.00 0.00 4.00 0.00 0.00 1.00 
2571287.25 1096264.50 2273.70 21845 20817 25443 21588.00 1.00 1.00 1.00 0.00 21.00 0.00 0.00 1.00 
2571287.00 1096264.38 2273.01 22873 21845 26214 22616.00 1.00 1.00 1.00 0.00 5.00 0.00 0.00 1.00 
2571289.25 1096265.12 2276.22 16191 17733 25186 17990.00 1.00 1.00 1.00 0.00 21.00 0.00 0.00 1.00 
2571289.00 1096265.00 2275.28 21331 22873 30583 23130.00 1.00 1.00 1.00 0.00 5.00 0.00 0.00 1.00 
2571288.75 1096264.88 2274.59 15934 16705 23387 16962.00 1.00 1.00 1.00 0.00 4.00 0.00 0.00 1.00 
2571288.50 1096264.62 2274.44 16191 17990 25186 17990.00 1.00 1.00 1.00 0.00 5.00 0.00 0.00 1.00 
2571290.75 1096265.50 2274.64 17990 18504 25957 19018.00 1.00 1.00 1.00 0.00 4.00 0.00 0.00 1.00 
2571289.75 1096265.00 2276.56 13878 15420 22873 15677.00 1.00 1.00 1.00 0.00 5.00 0.00 0.00 1.00 
2571289.50 1096264.75 2276.56 13621 15677 22873 15677.00 1.00 1.00 1.00 0.00 5.00 0.00 0.00 1.00 
2571289.25 1096264.50 2276.07 12850 15163 22359 15163.00 1.00 1.00 1.00 0.00 5.00 0.00 0.00 1.00 
2571288.75 1096264.38 2275.38 14392 16448 23644 16448.00 1.00 1.00 1.00 0.00 21.00 0.00 0.00 1.00 
2571288.50 1096264.25 2274.54 18504 19532 26985 19789.00 1.00 1.00 1.00 0.00 5.00 0.00 0.00 1.00 
2571291.00 1096266.12 2274.69 19789 20046 26214 20560.00 1.00 1.00 1.00 0.00 4.00 0.00 0.00 1.00 
2571290.50 1096265.75 2275.13 16705 17990 25700 18247.00 1.00 1.00 1.00 0.00 4.00 0.00 0.00 1.00 
2571289.50 1096265.25 2276.61 14906 16448 23901 16705.00 1.00 1.00 1.00 0.00 5.00 0.00 0.00 1.00 
2571290.00 1096265.50 2275.18 13621 15677 23130 15677.00 1.00 1.00 1.00 0.00 4.00 0.00 0.00 1.00 
2571290.25 1096264.62 2276.07 14135 15677 23644 15934.00 1.00 1.00 1.00 0.00 4.00 0.00 0.00 1.00 
2571289.50 1096264.38 2276.71 13621 15420 23130 15677.00 1.00 1.00 1.00 0.00 5.00 0.00 0.00 1.00 
2571289.25 1096264.12 2276.56 13107 15163 22616 15163.00 1.00 1.00 1.00 0.00 5.00 0.00 0.00 1.00 
2571289.00 1096263.88 2275.77 12079 14135 21331 14135.00 1.00 1.00 1.00 0.00 5.00 0.00 0.00 1.00 
2571288.75 1096263.88 2274.74 13364 14906 22873 15163.00 1.00 1.00 1.00 0.00 5.00 0.00 0.00 1.00 
2571288.50 1096263.62 2274.34 14392 16191 23644 16448.00 1.00 1.00 1.00 0.00 21.00 0.00 0.00 1.00 
2571287.50 1096263.12 2274.29 14135 16191 23901 16191.00 1.00 1.00 1.00 0.00 5.00 0.00 0.00 1.00 
2571290.25 1096264.38 2275.72 13878 15420 23130 15677.00 1.00 1.00 1.00 0.00 4.00 0.00 0.00 1.00 
2571289.50 1096263.88 2277.11 13107 14906 21845 14906.00 1.00 1.00 1.00 0.00 5.00 0.00 0.00 1.00 
2571289.25 1096263.75 2276.37 12850 14906 22359 14906.00 1.00 1.00 1.00 0.00 5.00 0.00 0.00 1.00 
2571289.00 1096263.62 2275.63 12593 14906 22616 14906.00 1.00 1.00 1.00 0.00 5.00 0.00 0.00 1.00 
2571288.75 1096263.38 2274.69 12336 14392 22102 14392.00 1.00 1.00 1.00 0.00 4.00 0.00 0.00 1.00 
2571287.50 1096262.75 2274.54 12593 15163 22873 15163.00 1.00 1.00 1.00 0.00 5.00 0.00 0.00 1.00 
2571289.75 1096263.38 2276.42 12336 13878 21331 14135.00 1.00 1.00 1.00 0.00 5.00 0.00 0.00 1.00 
2571290.25 1096263.62 2274.79 20303 22102 30326 22359.00 1.00 1.00 1.00 0.00 20.00 0.00 0.00 1.00 
2571289.50 1096263.25 2275.77 11565 13107 20560 13364.00 1.00 1.00 1.00 0.00 21.00 0.00 0.00 1.00 
2571289.75 1096263.38 2274.84 16705 18504 26214 18761.00 1.00 1.00 1.00 0.00 20.00 0.00 0.00 1.00 
2571289.50 1096263.25 2274.34 12593 14392 21845 14649.00 1.00 1.00 1.00 0.00 4.00 0.00 0.00 1.00 
2571288.25 1096262.50 2275.68 17476 18247 25443 18761.00 1.00 1.00 1.00 0.00 5.00 0.00 0.00 1.00 
2571288.50 1096262.75 2273.90 17990 19275 26728 19532.00 1.00 1.00 1.00 0.00 4.00 0.00 0.00 1.00 
2571287.75 1096262.25 2275.33 15420 16962 24158 17219.00 1.00 1.00 1.00 0.00 21.00 0.00 0.00 1.00 
2571288.25 1096262.50 2273.70 14906 16962 24158 16962.00 1.00 1.00 1.00 0.00 20.00 0.00 0.00 1.00 
2571287.75 1096262.25 2273.60 16705 18761 26471 18761.00 1.00 1.00 1.00 0.00 4.00 0.00 0.00 1.00 
2571290.00 1096263.00 2274.79 21331 23130 30840 23387.00 1.00 1.00 1.00 0.00 4.00 0.00 0.00 1.00 
2571289.50 1096262.88 2274.59 12593 14906 22359 14906.00 1.00 1.00 1.00 0.00 4.00 0.00 0.00 1.00 
2571289.00 1096262.50 2275.48 30069 30069 36494 30583.00 1.00 1.00 1.00 0.00 5.00 0.00 0.00 1.00 
2571289.25 1096262.62 2274.44 13878 15420 21845 15420.00 1.00 1.00 1.00 0.00 4.00 0.00 0.00 1.00 
2571288.25 1096262.12 2276.07 22873 22359 28013 23130.00 1.00 1.00 1.00 0.00 5.00 0.00 0.00 1.00 
2571288.75 1096262.38 2274.29 17990 18504 24415 18761.00 1.00 1.00 1.00 0.00 4.00 0.00 0.00 1.00 
2571288.00 1096261.88 2275.77 20046 20560 26471 20817.00 1.00 1.00 1.00 0.00 5.00 0.00 0.00 1.00 
2571288.50 1096262.12 2273.95 18761 19789 26985 20046.00 1.00 1.00 1.00 0.00 20.00 0.00 0.00 1.00 
2571287.75 1096261.75 2275.08 19789 19532 24415 20046.00 1.00 1.00 1.00 0.00 5.00 0.00 0.00 1.00 
2571289.50 1096262.25 2276.46 15420 16705 24158 16962.00 1.00 1.00 1.00 0.00 5.00 0.00 0.00 1.00 
2571289.00 1096262.00 2276.12 18247 18761 25443 19275.00 1.00 1.00 1.00 0.00 5.00 0.00 0.00 1.00 
2571288.75 1096261.75 2275.72 15420 16448 23901 16705.00 1.00 1.00 1.00 0.00 5.00 0.00 0.00 1.00 
2571289.00 1096262.00 2274.39 20560 21845 28527 22102.00 1.00 1.00 1.00 0.00 4.00 0.00 0.00 1.00 
2571288.25 1096261.50 2275.63 22102 22102 27756 22616.00 1.00 1.00 1.00 0.00 5.00 0.00 0.00 1.00 
2571288.00 1096261.38 2275.43 20303 20560 25957 21074.00 1.00 1.00 1.00 0.00 5.00 0.00 0.00 1.00 
2571288.25 1096261.62 2273.75 16448 17733 24929 17990.00 1.00 1.00 1.00 0.00 4.00 0.00 0.00 1.00 
2571289.75 1096262.00 2277.30 14649 16448 24158 16705.00 1.00 1.00 1.00 0.00 5.00 0.00 0.00 1.00 
2571289.25 1096261.75 2276.86 13621 15677 23130 15677.00 1.00 1.00 1.00 0.00 5.00 0.00 0.00 1.00 
2571289.00 1096261.50 2276.27 13878 15420 22616 15677.00 1.00 1.00 1.00 0.00 5.00 0.00 0.00 1.00 
2571289.00 1096261.62 2274.44 15934 17219 24415 17476.00 1.00 1.00 1.00 0.00 4.00 0.00 0.00 1.00 
2571288.00 1096261.00 2275.13 17990 19275 25700 19532.00 1.00 1.00 1.00 0.00 4.00 0.00 0.00 1.00 
2571290.75 1096262.00 2276.32 15677 16962 23901 17219.00 1.00 1.00 1.00 0.00 4.00 0.00 0.00 1.00 
2571290.50 1096261.88 2276.12 16191 16962 24158 17476.00 1.00 1.00 1.00 0.00 4.00 0.00 0.00 1.00 
2571289.75 1096261.38 2277.11 13364 15677 22616 15677.00 1.00 1.00 1.00 0.00 5.00 0.00 0.00 1.00 
2571289.50 1096261.25 2276.02 12593 14392 22102 14649.00 1.00 1.00 1.00 0.00 4.00 0.00 0.00 1.00 
2571289.00 1096261.00 2274.84 16448 17990 24672 18247.00 1.00 1.00 1.00 0.00 20.00 0.00 0.00 1.00 
2571288.50 1096260.75 2274.59 16962 18761 25700 18761.00 1.00 1.00 1.00 0.00 4.00 0.00 0.00 1.00 
2571291.25 1096261.75 2279.92 16705 17990 25186 18247.00 1.00 1.00 1.00 0.00 5.00 0.00 0.00 1.00 
2571290.75 1096261.50 2279.57 16448 17990 25186 18247.00 1.00 1.00 1.00 0.00 5.00 0.00 0.00 1.00 
2571290.50 1096261.25 2277.70 15677 16705 23644 16962.00 1.00 1.00 1.00 0.00 4.00 0.00 0.00 1.00 
2571290.75 1096261.50 2276.66 15420 16705 22616 16962.00 1.00 1.00 1.00 0.00 20.00 0.00 0.00 1.00 
2571290.00 1096261.00 2277.50 14135 15677 23387 15934.00 1.00 1.00 1.00 0.00 4.00 0.00 0.00 1.00 
2571289.75 1096260.88 2277.01 13364 15163 22359 15163.00 1.00 1.00 1.00 0.00 4.00 0.00 0.00 1.00 
2571289.75 1096261.00 2276.07 16448 17219 24158 17733.00 1.00 1.00 1.00 0.00 4.00 0.00 0.00 1.00 
2571291.25 1096261.38 2280.36 14906 16705 23644 16705.00 1.00 1.00 1.00 0.00 5.00 0.00 0.00 1.00 
2571291.00 1096261.12 2280.12 15420 16705 23130 16962.00 1.00 1.00 1.00 0.00 5.00 0.00 0.00 1.00 
2571290.50 1096261.00 2279.92 16448 17733 24929 17990.00 1.00 1.00 1.00 0.00 21.00 0.00 0.00 1.00 
2571290.25 1096260.75 2279.72 16705 18247 25443 18504.00 1.00 1.00 1.00 0.00 5.00 0.00 0.00 1.00 
2571291.00 1096261.12 2276.76 18761 20303 28013 20560.00 1.00 1.00 1.00 0.00 4.00 0.00 0.00 1.00 
2571290.00 1096260.62 2278.44 14392 16191 23644 16448.00 1.00 1.00 1.00 0.00 5.00 0.00 0.00 1.00 
2571290.50 1096260.88 2276.81 14392 15934 23387 16191.00 1.00 1.00 1.00 0.00 4.00 0.00 0.00 1.00 
2571290.50 1096260.88 2276.51 16962 18761 26214 19018.00 1.00 1.00 1.00 0.00 4.00 0.00 0.00 1.00 
2571291.25 1096261.00 2280.22 14906 16191 22873 16448.00 1.00 1.00 1.00 0.00 5.00 0.00 0.00 1.00 
2571290.75 1096260.62 2280.56 15420 16191 22359 16448.00 1.00 1.00 1.00 0.00 5.00 0.00 0.00 1.00 
2571291.00 1096260.75 2280.07 13621 15163 21845 15420.00 1.00 1.00 1.00 0.00 21.00 0.00 0.00 1.00 
2571290.50 1096260.50 2279.87 15163 15934 22102 16191.00 1.00 1.00 1.00 0.00 5.00 0.00 0.00 1.00 
2571290.25 1096260.38 2279.48 15677 16962 24158 17219.00 1.00 1.00 1.00 0.00 21.00 0.00 0.00 1.00 
2571290.00 1096260.25 2278.29 14649 16705 23644 16705.00 1.00 1.00 1.00 0.00 5.00 0.00 0.00 1.00 
2571289.75 1096260.00 2278.04 18247 20303 27499 20303.00 1.00 1.00 1.00 0.00 5.00 0.00 0.00 1.00 
2571291.50 1096260.50 2283.03 39321 34438 32896 35723.00 1.00 1.00 1.00 0.00 5.00 0.00 0.00 1.00 
2571291.50 1096260.62 2282.54 34695 31868 32125 32639.00 1.00 1.00 1.00 0.00 5.00 0.00 0.00 1.00 
2571291.25 1096260.38 2282.19 25443 22616 23644 23387.00 1.00 1.00 1.00 0.00 21.00 0.00 0.00 1.00 
2571291.00 1096260.25 2281.15 23901 22102 24929 22873.00 1.00 1.00 1.00 0.00 21.00 0.00 0.00 1.00 
2571290.75 1096260.12 2280.56 17476 17476 21588 17733.00 1.00 1.00 1.00 0.00 5.00 0.00 0.00 1.00 
2571291.50 1096260.12 2283.62 47288 39321 36494 41377.00 1.00 1.00 1.00 0.00 5.00 0.00 0.00 1.00 
2571291.25 1096259.88 2282.88 49344 41634 38807 43433.00 1.00 1.00 1.00 0.00 5.00 0.00 0.00 1.00 
2571291.00 1096259.75 2282.19 34181 28784 28270 30326.00 1.00 1.00 1.00 0.00 5.00 0.00 0.00 1.00 
2571291.25 1096259.38 2282.19 35723 29812 29298 31354.00 1.00 1.00 1.00 0.00 21.00 0.00 0.00 1.00 
2571291.00 1096259.88 2282.19 36237 30840 29812 32125.00 1.00 1.00 1.00 0.00 5.00 0.00 0.00 1.00 
2571290.75 1096259.75 2280.51 25186 23130 25186 23901.00 1.00 1.00 1.00 0.00 5.00 0.00 0.00 1.00 
2571291.25 1096260.00 2283.38 50115 41377 38036 43433.00 1.00 1.00 1.00 0.00 5.00 0.00 0.00 1.00 
2571291.25 1096260.00 2282.19 42919 36494 34952 38036.00 1.00 1.00 1.00 0.00 5.00 0.00 0.00 1.00 
2571289.50 1096259.88 2277.90 19532 21588 29041 21588.00 1.00 1.00 1.00 0.00 5.00 0.00 0.00 1.00 
2571290.00 1096260.00 2279.43 15934 17219 24415 17476.00 1.00 1.00 1.00 0.00 21.00 0.00 0.00 1.00 
2571290.00 1096260.00 2278.24 18504 20303 27756 20560.00 1.00 1.00 1.00 0.00 20.00 0.00 0.00 1.00 
2571290.50 1096260.25 2279.77 14392 15677 22102 15934.00 1.00 1.00 1.00 0.00 5.00 0.00 0.00 1.00 
2571291.00 1096260.38 2280.86 15934 15934 20303 16191.00 1.00 1.00 1.00 0.00 5.00 0.00 0.00 1.00 
2571290.75 1096260.38 2280.02 17476 17733 24158 18247.00 1.00 1.00 1.00 0.00 5.00 0.00 0.00 1.00 
2571291.25 1096260.62 2280.17 14392 15934 22873 16191.00 1.00 1.00 1.00 0.00 5.00 0.00 0.00 1.00 
2571291.50 1096260.75 2280.17 13878 15677 21845 15677.00 1.00 1.00 1.00 0.00 5.00 0.00 0.00 1.00 
2571289.75 1096260.38 2277.21 14906 15934 23387 16191.00 1.00 1.00 1.00 0.00 4.00 0.00 0.00 1.00 
2571290.25 1096260.62 2279.48 16448 17990 24672 18247.00 1.00 1.00 1.00 0.00 5.00 0.00 0.00 1.00 
2571290.25 1096260.62 2277.25 13364 14906 22359 15163.00 1.00 1.00 1.00 0.00 20.00 0.00 0.00 1.00 
2571290.75 1096260.88 2279.23 17990 19018 25443 19275.00 1.00 1.00 1.00 0.00 5.00 0.00 0.00 1.00 
2571291.00 1096261.00 2279.87 14649 15934 23130 16191.00 1.00 1.00 1.00 0.00 5.00 0.00 0.00 1.00 
2571291.50 1096261.25 2279.82 15420 16448 23130 16705.00 1.00 1.00 1.00 0.00 5.00 0.00 0.00 1.00 
2571291.25 1096261.12 2277.75 22359 22359 29555 23130.00 1.00 1.00 1.00 0.00 4.00 0.00 0.00 1.00 
2571289.50 1096261.00 2277.01 13364 15420 22616 15420.00 1.00 1.00 1.00 0.00 5.00 0.00 0.00 1.00 
2571290.00 1096261.25 2276.96 15677 17219 24929 17476.00 1.00 1.00 1.00 0.00 4.00 0.00 0.00 1.00 
2571290.25 1096261.38 2276.02 20303 21845 29041 22102.00 1.00 1.00 1.00 0.00 4.00 0.00 0.00 1.00 
2571290.75 1096261.62 2276.22 22359 23901 31611 24158.00 1.00 1.00 1.00 0.00 20.00 0.00 0.00 1.00 
2571287.75 1096260.75 2275.48 16191 17733 24415 17990.00 1.00 1.00 1.00 0.00 5.00 0.00 0.00 1.00 
2571288.00 1096261.00 2275.72 17733 18761 24929 19018.00 1.00 1.00 1.00 0.00 5.00 0.00 0.00 1.00 
2571288.50 1096261.12 2275.48 16962 17990 24672 18247.00 1.00 1.00 1.00 0.00 4.00 0.00 0.00 1.00 
2571289.00 1096261.38 2275.72 14649 16191 22616 16191.00 1.00 1.00 1.00 0.00 4.00 0.00 0.00 1.00 
2571289.25 1096261.62 2276.61 12336 14135 21588 14392.00 1.00 1.00 1.00 0.00 21.00 0.00 0.00 1.00 
2571289.75 1096261.75 2276.91 15934 17219 24929 17476.00 1.00 1.00 1.00 0.00 5.00 0.00 0.00 1.00 
2571287.25 1096261.38 2275.53 22359 22102 28527 22873.00 1.00 1.00 1.00 0.00 5.00 0.00 0.00 1.00 
2571287.75 1096261.50 2275.53 20046 20303 25957 20817.00 1.00 1.00 1.00 0.00 21.00 0.00 0.00 1.00 
2571287.75 1096261.50 2274.93 20303 20303 25443 20817.00 1.00 1.00 1.00 0.00 5.00 0.00 0.00 1.00 
2571288.25 1096261.75 2275.92 23130 22616 28013 23130.00 1.00 1.00 1.00 0.00 21.00 0.00 0.00 1.00 
2571288.50 1096262.00 2275.87 20303 20303 26471 20817.00 1.00 1.00 1.00 0.00 5.00 0.00 0.00 1.00 
2571288.50 1096261.88 2274.10 20817 21588 28784 22102.00 1.00 1.00 1.00 0.00 20.00 0.00 0.00 1.00 
2571289.00 1096262.12 2275.48 22359 22873 29555 23387.00 1.00 1.00 1.00 0.00 4.00 0.00 0.00 1.00 
2571289.00 1096262.12 2274.34 20560 21845 28527 22102.00 1.00 1.00 1.00 0.00 20.00 0.00 0.00 1.00 
2571289.25 1096262.25 2274.44 14392 15677 23901 16191.00 1.00 1.00 1.00 0.00 4.00 0.00 0.00 1.00 
2571287.75 1096262.12 2274.29 14135 15420 23130 15677.00 1.00 1.00 1.00 0.00 4.00 0.00 0.00 1.00 
2571287.75 1096262.12 2273.45 18504 19532 26214 19789.00 1.00 1.00 1.00 0.00 4.00 0.00 0.00 1.00 
2571288.25 1096262.38 2275.43 18761 19532 26471 20046.00 1.00 1.00 1.00 0.00 5.00 0.00 0.00 1.00 
2571288.00 1096262.25 2273.55 12079 13364 19275 13621.00 1.00 1.00 1.00 0.00 4.00 0.00 0.00 1.00 
2571288.50 1096262.50 2273.80 18247 19532 26214 19789.00 1.00 1.00 1.00 0.00 4.00 0.00 0.00 1.00 
2571289.00 1096262.75 2273.95 16705 18247 25700 18504.00 1.00 1.00 1.00 0.00 4.00 0.00 0.00 1.00 
2571289.50 1096263.00 2275.63 15934 17733 25700 17990.00 1.00 1.00 1.00 0.00 4.00 0.00 0.00 1.00 
2571289.25 1096262.88 2274.34 12079 14392 22359 14392.00 1.00 1.00 1.00 0.00 20.00 0.00 0.00 1.00 
2571289.75 1096263.12 2275.97 13107 15163 22616 15163.00 1.00 1.00 1.00 0.00 4.00 0.00 0.00 1.00 
2571289.75 1096263.12 2274.84 17476 19532 27499 19789.00 1.00 1.00 1.00 0.00 20.00 0.00 0.00 1.00 
2571290.25 1096263.38 2274.84 20303 22102 30326 22359.00 1.00 1.00 1.00 0.00 4.00 0.00 0.00 1.00 
2571287.50 1096262.88 2274.00 13621 15677 23644 15934.00 1.00 1.00 1.00 0.00 5.00 0.00 0.00 1.00 
2571288.75 1096263.38 2274.59 11822 14135 21331 14135.00 1.00 1.00 1.00 0.00 4.00 0.00 0.00 1.00 
2571289.25 1096263.62 2276.37 12850 14906 22616 14906.00 1.00 1.00 1.00 0.00 5.00 0.00 0.00 1.00 
2571289.50 1096263.88 2276.56 16191 17990 26214 18247.00 1.00 1.00 1.00 0.00 5.00 0.00 0.00 1.00 
2571288.50 1096264.12 2275.43 15677 17733 25700 17990.00 1.00 1.00 1.00 0.00 5.00 0.00 0.00 1.00 
2571288.50 1096264.12 2274.54 16448 17990 25957 18247.00 1.00 1.00 1.00 0.00 5.00 0.00 0.00 1.00 
2571289.00 1096264.25 2275.43 13621 15677 23130 15677.00 1.00 1.00 1.00 0.00 21.00 0.00 0.00 1.00 
2571289.25 1096264.50 2276.42 13364 15420 22873 15420.00 1.00 1.00 1.00 0.00 5.00 0.00 0.00 1.00 
2571289.75 1096264.62 2276.56 14392 16191 23644 16448.00 1.00 1.00 1.00 0.00 5.00 0.00 0.00 1.00 
2571290.00 1096264.75 2275.43 14906 16448 23901 16705.00 1.00 1.00 1.00 0.00 4.00 0.00 0.00 1.00 
2571290.00 1096264.00 2275.63 12850 14392 22102 14649.00 1.00 1.00 1.00 0.00 4.00 0.00 0.00 1.00 
2571290.25 1096264.25 2275.77 13878 15677 23387 15934.00 1.00 1.00 1.00 0.00 20.00 0.00 0.00 1.00 
2571287.25 1096264.12 2273.85 17219 17476 23644 17990.00 1.00 1.00 1.00 0.00 5.00 0.00 0.00 1.00 
2571289.50 1096265.25 2275.28 14392 15934 22102 15934.00 1.00 1.00 1.00 0.00 20.00 0.00 0.00 1.00 
2571290.00 1096265.50 2275.33 13621 15677 23130 15677.00 1.00 1.00 1.00 0.00 4.00 0.00 0.00 1.00 
2571290.25 1096265.75 2275.92 13621 15420 22616 15420.00 1.00 1.00 1.00 0.00 5.00 0.00 0.00 1.00 
2571290.75 1096265.88 2274.93 17990 18761 25700 19275.00 1.00 1.00 1.00 0.00 4.00 0.00 0.00 1.00 
2571291.00 1096266.00 2274.84 19789 19532 26214 20303.00 1.00 1.00 1.00 0.00 4.00 0.00 0.00 1.00 
2571286.50 1096264.62 2273.45 26985 24672 26985 25443.00 1.00 1.00 1.00 0.00 21.00 0.00 0.00 1.00 
2571287.00 1096264.75 2273.16 32639 29298 31097 30326.00 1.00 1.00 1.00 0.00 5.00 0.00 0.00 1.00 
2571289.25 1096265.88 2274.05 15163 16448 23644 16705.00 1.00 1.00 1.00 0.00 4.00 0.00 0.00 1.00 
2571289.75 1096266.12 2274.89 13878 15420 22873 15677.00 1.00 1.00 1.00 0.00 20.00 0.00 0.00 1.00 
2571290.00 1096266.25 2275.28 14392 15934 22873 16191.00 1.00 1.00 1.00 0.00 5.00 0.00 0.00 1.00 
2571290.50 1096266.50 2275.18 15677 16962 23901 17219.00 1.00 1.00 1.00 0.00 4.00 0.00 0.00 1.00 
2571291.50 1096259.38 2282.29 41120 33924 32382 35723.00 1.00 1.00 1.00 0.00 5.00 0.00 0.00 1.00 
2571291.50 1096260.00 2282.88 46774 39064 36494 40863.00 1.00 1.00 1.00 0.00 5.00 0.00 0.00 1.00 
2571291.25 1096259.88 2283.42 50629 41634 37779 43690.00 1.00 1.00 1.00 0.00 21.00 0.00 0.00 1.00 
2571291.50 1096260.62 2280.02 13878 15677 21331 15677.00 1.00 1.00 1.00 0.00 5.00 0.00 0.00 1.00 
2571291.50 1096260.62 2281.20 15934 16191 21588 16705.00 1.00 1.00 1.00 0.00 5.00 0.00 0.00 1.00 
2571291.25 1096260.62 2282.14 23130 21331 23901 22102.00 1.00 1.00 1.00 0.00 5.00 0.00 0.00 1.00 
2571291.00 1096260.38 2280.91 20560 19789 23130 20303.00 1.00 1.00 1.00 0.00 21.00 0.00 0.00 1.00 
2571291.25 1096260.62 2283.13 31354 27499 26985 28527.00 1.00 1.00 1.00 0.00 5.00 0.00 0.00 1.00 
2571290.50 1096260.25 2281.10 17990 17219 21588 17733.00 1.00 1.00 1.00 0.00 5.00 0.00 0.00 1.00 
2571291.25 1096261.12 2278.14 18761 19789 26728 20046.00 1.00 1.00 1.00 0.00 4.00 0.00 0.00 1.00 
2571291.25 1096261.12 2280.41 14906 16191 22873 16448.00 1.00 1.00 1.00 0.00 5.00 0.00 0.00 1.00 
2571290.75 1096260.88 2280.12 14649 16191 22873 16448.00 1.00 1.00 1.00 0.00 5.00 0.00 0.00 1.00 
2571290.25 1096260.62 2279.82 16191 17476 23901 17733.00 1.00 1.00 1.00 0.00 5.00 0.00 0.00 1.00 
2571290.50 1096261.38 2276.51 17733 19018 25186 19275.00 1.00 1.00 1.00 0.00 20.00 0.00 0.00 1.00 
2571291.25 1096261.75 2279.62 17990 18761 26214 19275.00 1.00 1.00 1.00 0.00 5.00 0.00 0.00 1.00 
2571290.25 1096261.25 2276.91 15163 16191 23387 16448.00 1.00 1.00 1.00 0.00 4.00 0.00 0.00 1.00 
2571291.00 1096261.62 2280.02 16962 17990 25443 18247.00 1.00 1.00 1.00 0.00 5.00 0.00 0.00 1.00 
2571290.00 1096261.12 2277.45 15163 16705 23901 16962.00 1.00 1.00 1.00 0.00 20.00 0.00 0.00 1.00 
2571289.75 1096261.00 2277.65 12336 14649 22359 14649.00 1.00 1.00 1.00 0.00 5.00 0.00 0.00 1.00 
2571290.50 1096262.00 2276.51 16191 16962 24415 17476.00 1.00 1.00 1.00 0.00 4.00 0.00 0.00 1.00 
2571290.25 1096261.75 2276.56 14906 16448 23901 16705.00 1.00 1.00 1.00 0.00 4.00 0.00 0.00 1.00 
2571289.75 1096261.62 2276.71 14649 16448 23387 16448.00 1.00 1.00 1.00 0.00 4.00 0.00 0.00 1.00 
2571289.75 1096261.50 2277.30 12850 14906 22359 14906.00 1.00 1.00 1.00 0.00 21.00 0.00 0.00 1.00 
2571288.25 1096260.75 2274.98 15934 17476 23901 17476.00 1.00 1.00 1.00 0.00 4.00 0.00 0.00 1.00 
2571289.50 1096262.12 2275.43 23130 23901 31868 24415.00 1.00 1.00 1.00 0.00 4.00 0.00 0.00 1.00 
2571289.00 1096261.88 2274.10 20560 21845 28527 22102.00 1.00 1.00 1.00 0.00 4.00 0.00 0.00 1.00 
2571289.25 1096262.00 2276.12 14392 16191 23644 16448.00 1.00 1.00 1.00 0.00 5.00 0.00 0.00 1.00 
2571288.50 1096261.62 2275.23 20046 20046 25700 20560.00 1.00 1.00 1.00 0.00 4.00 0.00 0.00 1.00 
2571288.50 1096261.50 2275.87 22102 21845 27499 22359.00 1.00 1.00 1.00 0.00 5.00 0.00 0.00 1.00 
2571288.00 1096261.38 2275.97 23901 23644 28784 24158.00 1.00 1.00 1.00 0.00 5.00 0.00 0.00 1.00 
2571287.75 1096261.25 2275.43 19532 20046 25700 20303.00 1.00 1.00 1.00 0.00 5.00 0.00 0.00 1.00 
2571287.50 1096261.12 2275.72 17990 19018 25186 19275.00 1.00 1.00 1.00 0.00 5.00 0.00 0.00 1.00 
2571289.75 1096262.62 2274.59 19018 20817 28527 21074.00 1.00 1.00 1.00 0.00 4.00 0.00 0.00 1.00 
2571289.25 1096262.38 2274.39 8738 10537 16191 10537.00 1.00 1.00 1.00 0.00 20.00 0.00 0.00 1.00 
2571289.25 1096262.38 2275.38 22359 23387 30326 23644.00 1.00 1.00 1.00 0.00 4.00 0.00 0.00 1.00 
2571288.75 1096262.12 2273.85 18504 19532 26985 19789.00 1.00 1.00 1.00 0.00 4.00 0.00 0.00 1.00 
2571288.50 1096262.00 2274.69 17990 19018 25186 19275.00 1.00 1.00 1.00 0.00 4.00 0.00 0.00 1.00 
2571288.50 1096262.00 2275.72 18247 18761 25186 19275.00 1.00 1.00 1.00 0.00 5.00 0.00 0.00 1.00 
2571288.25 1096261.88 2276.02 23387 22359 27499 23130.00 1.00 1.00 1.00 0.00 5.00 0.00 0.00 1.00 
2571287.50 1096261.50 2275.43 17476 17733 23387 18247.00 1.00 1.00 1.00 0.00 5.00 0.00 0.00 1.00 
2571288.00 1096262.25 2273.55 18504 19532 26214 19789.00 1.00 1.00 1.00 0.00 20.00 0.00 0.00 1.00 
2571288.25 1096262.50 2275.38 16191 17476 24415 17733.00 1.00 1.00 1.00 0.00 21.00 0.00 0.00 1.00 
2571287.50 1096262.00 2273.36 15677 16962 24672 17219.00 1.00 1.00 1.00 0.00 4.00 0.00 0.00 1.00 
2571288.00 1096262.38 2275.97 19018 19532 26214 20046.00 1.00 1.00 1.00 0.00 5.00 0.00 0.00 1.00 
2571287.50 1096262.00 2274.15 14906 16448 23901 16705.00 1.00 1.00 1.00 0.00 5.00 0.00 0.00 1.00 
2571290.00 1096263.38 2274.84 21074 22873 31097 23130.00 1.00 1.00 1.00 0.00 20.00 0.00 0.00 1.00 
2571289.50 1096263.12 2274.54 16191 18504 26214 18504.00 1.00 1.00 1.00 0.00 4.00 0.00 0.00 1.00 
2571289.75 1096263.12 2275.92 15163 16962 25186 17219.00 1.00 1.00 1.00 0.00 20.00 0.00 0.00 1.00 
2571289.00 1096262.88 2274.10 13107 15163 22359 15163.00 1.00 1.00 1.00 0.00 4.00 0.00 0.00 1.00 
2571288.75 1096262.62 2274.10 16448 17476 24158 17733.00 1.00 1.00 1.00 0.00 20.00 0.00 0.00 1.00 
2571290.25 1096264.00 2274.64 15677 17990 26471 17990.00 1.00 1.00 1.00 0.00 4.00 0.00 0.00 1.00 
2571290.00 1096263.75 2274.79 19789 21588 30069 21845.00 1.00 1.00 1.00 0.00 4.00 0.00 0.00 1.00 
2571289.75 1096263.62 2275.33 15163 16962 24672 17219.00 1.00 1.00 1.00 0.00 4.00 0.00 0.00 1.00 
2571289.50 1096263.62 2275.77 11308 12850 20303 13107.00 1.00 1.00 1.00 0.00 5.00 0.00 0.00 1.00 
2571289.50 1096263.62 2277.01 12850 14649 22102 14906.00 1.00 1.00 1.00 0.00 21.00 0.00 0.00 1.00 
2571288.25 1096263.00 2273.45 14649 15934 21845 16191.00 1.00 1.00 1.00 0.00 4.00 0.00 0.00 1.00 
2571287.75 1096262.62 2273.26 15677 16962 24415 17219.00 1.00 1.00 1.00 0.00 4.00 0.00 0.00 1.00 
2571287.75 1096262.62 2274.19 14135 16191 23901 16191.00 1.00 1.00 1.00 0.00 5.00 0.00 0.00 1.00 
2571287.25 1096262.50 2274.44 13107 15163 22873 15163.00 1.00 1.00 1.00 0.00 21.00 0.00 0.00 1.00 
2571290.25 1096264.50 2275.43 13364 14906 22616 15163.00 1.00 1.00 1.00 0.00 4.00 0.00 0.00 1.00 
2571289.75 1096264.38 2275.63 19275 20560 28527 20817.00 1.00 1.00 1.00 0.00 4.00 0.00 0.00 1.00 
2571289.75 1096264.25 2276.37 13107 15163 22616 15163.00 1.00 1.00 1.00 0.00 5.00 0.00 0.00 1.00 
2571289.50 1096264.12 2276.71 13107 14906 22102 14906.00 1.00 1.00 1.00 0.00 5.00 0.00 0.00 1.00 
2571289.25 1096264.00 2277.06 13621 15677 23130 15677.00 1.00 1.00 1.00 0.00 5.00 0.00 0.00 1.00 
2571290.25 1096265.00 2275.23 15420 16962 24415 17219.00 1.00 1.00 1.00 0.00 4.00 0.00 0.00 1.00 
2571290.00 1096264.88 2275.77 14392 16191 23901 16448.00 1.00 1.00 1.00 0.00 4.00 0.00 0.00 1.00 
2571289.75 1096264.75 2276.27 14392 16191 23644 16448.00 1.00 1.00 1.00 0.00 5.00 0.00 0.00 1.00 
2571289.75 1096264.62 2276.71 14392 15934 23387 16191.00 1.00 1.00 1.00 0.00 5.00 0.00 0.00 1.00 
2571289.25 1096264.38 2276.76 13621 15420 22873 15677.00 1.00 1.00 1.00 0.00 5.00 0.00 0.00 1.00 
2571290.50 1096265.62 2275.18 14392 15934 23644 16191.00 1.00 1.00 1.00 0.00 20.00 0.00 0.00 1.00 
2571290.00 1096265.25 2274.93 14906 16962 24672 16962.00 1.00 1.00 1.00 0.00 4.00 0.00 0.00 1.00 
2571289.75 1096265.12 2275.33 16962 18247 25700 18504.00 1.00 1.00 1.00 0.00 4.00 0.00 0.00 1.00 
2571289.75 1096265.12 2276.17 14649 16448 23901 16705.00 1.00 1.00 1.00 0.00 5.00 0.00 0.00 1.00 
2571289.25 1096264.88 2276.12 13878 15420 22616 15677.00 1.00 1.00 1.00 0.00 5.00 0.00 0.00 1.00 
2571290.75 1096266.25 2274.93 22102 22359 28527 22873.00 1.00 1.00 1.00 0.00 4.00 0.00 0.00 1.00 
2571290.50 1096266.00 2275.23 17476 18504 25700 18761.00 1.00 1.00 1.00 0.00 20.00 0.00 0.00 1.00 
2571290.25 1096266.00 2276.02 15420 17219 24158 17219.00 1.00 1.00 1.00 0.00 5.00 0.00 0.00 1.00 
2571289.50 1096265.62 2275.28 12850 14392 21331 14649.00 1.00 1.00 1.00 0.00 4.00 0.00 0.00 1.00 
2571289.25 1096265.50 2275.48 16962 18504 25443 18761.00 1.00 1.00 1.00 0.00 5.00 0.00 0.00 1.00 
2571287.00 1096265.00 2273.60 25957 24672 28270 25443.00 1.00 1.00 1.00 0.00 5.00 0.00 0.00 1.00 
2571286.50 1096264.75 2273.36 30326 26728 28527 27756.00 1.00 1.00 1.00 0.00 21.00 0.00 0.00 1.00 
2571290.25 1096266.62 2274.29 14649 15677 22616 15934.00 1.00 1.00 1.00 0.00 4.00 0.00 0.00 1.00 
2571290.00 1096266.50 2275.23 14392 15677 22616 15934.00 1.00 1.00 1.00 0.00 5.00 0.00 0.00 1.00 
2571289.75 1096266.25 2275.08 13878 15163 22616 15420.00 1.00 1.00 1.00 0.00 5.00 0.00 0.00 1.00 
2571289.25 1096266.12 2274.00 15420 16705 24158 16962.00 1.00 1.00 1.00 0.00 4.00 0.00 0.00 1.00 
2571289.75 1096266.75 2274.93 16962 18247 25186 18504.00 1.00 1.00 1.00 0.00 5.00 0.00 0.00 1.00 
2571287.25 1096265.50 2273.80 26985 24158 26471 25186.00 1.00 1.00 1.00 0.00 5.00 0.00 0.00 1.00 
2571287.00 1096265.25 2273.75 30326 27242 29041 28270.00 1.00 1.00 1.00 0.00 5.00 0.00 0.00 1.00 
2571286.75 1096265.25 2274.34 33153 29555 30840 30583.00 1.00 1.00 1.00 0.00 5.00 0.00 0.00 1.00 
2571286.50 1096265.00 2273.31 33410 29298 30326 30583.00 1.00 1.00 1.00 0.00 5.00 0.00 0.00 1.00 
2571286.00 1096264.75 2273.45 30326 27499 29298 28527.00 1.00 1.00 1.00 0.00 5.00 0.00 0.00 1.00 
2571287.25 1096266.00 2274.05 25443 25186 30069 25700.00 1.00 1.00 1.00 0.00 5.00 0.00 0.00 1.00 
2571286.75 1096265.75 2273.90 29555 26985 29298 27756.00 1.00 1.00 1.00 0.00 5.00 0.00 0.00 1.00 
2571292.75 1096260.00 2280.81 14649 15677 22359 15934.00 1.00 1.00 1.00 0.00 4.00 0.00 0.00 1.00 
2571292.00 1096259.75 2283.38 40349 32382 31868 34695.00 1.00 1.00 1.00 0.00 5.00 0.00 0.00 1.00 
2571292.75 1096261.00 2280.71 15163 15934 22873 16448.00 1.00 1.00 1.00 0.00 4.00 0.00 0.00 1.00 
2571292.50 1096260.25 2281.06 16191 16962 24672 17476.00 1.00 1.00 1.00 0.00 5.00 0.00 0.00 1.00 
2571291.75 1096261.12 2280.31 15163 16705 23644 16962.00 1.00 1.00 1.00 0.00 5.00 0.00 0.00 1.00 
2571291.75 1096261.00 2280.17 14906 16191 22873 16448.00 1.00 1.00 1.00 0.00 5.00 0.00 0.00 1.00 
2571292.25 1096261.62 2279.72 14649 15677 22102 15934.00 1.00 1.00 1.00 0.00 5.00 0.00 0.00 1.00 
2571292.25 1096260.00 2280.71 15934 16448 23644 16962.00 1.00 1.00 1.00 0.00 4.00 0.00 0.00 1.00 
2571292.50 1096260.38 2281.10 15163 15934 23387 16448.00 1.00 1.00 1.00 0.00 4.00 0.00 0.00 1.00 
2571293.00 1096260.88 2280.51 15677 16191 22616 16705.00 1.00 1.00 1.00 0.00 4.00 0.00 0.00 1.00 
2571292.00 1096261.88 2279.62 18504 19018 26214 19532.00 1.00 1.00 1.00 0.00 5.00 0.00 0.00 1.00 
2571292.00 1096261.75 2277.50 19275 20303 27242 20560.00 1.00 1.00 1.00 0.00 4.00 0.00 0.00 1.00 
2571291.75 1096261.50 2279.48 16705 17219 24158 17733.00 1.00 1.00 1.00 0.00 5.00 0.00 0.00 1.00 
2571291.75 1096261.50 2277.90 18761 19018 26214 19532.00 1.00 1.00 1.00 0.00 4.00 0.00 0.00 1.00 
2571292.50 1096261.12 2280.76 15420 16191 23387 16705.00 1.00 1.00 1.00 0.00 5.00 0.00 0.00 1.00 
2571292.50 1096261.12 2279.28 39835 38293 43176 39064.00 1.00 1.00 1.00 0.00 4.00 0.00 0.00 1.00 
2571292.25 1096260.75 2280.27 15163 16191 23130 16448.00 1.00 1.00 1.00 0.00 4.00 0.00 0.00 1.00 
2571292.00 1096260.50 2282.59 21331 20560 25443 21074.00 1.00 1.00 1.00 0.00 5.00 0.00 0.00 1.00 
2571292.00 1096260.38 2280.81 15934 16705 23387 16962.00 1.00 1.00 1.00 0.00 5.00 0.00 0.00 1.00 
2571291.75 1096260.12 2281.60 35209 30069 31354 31611.00 1.00 1.00 1.00 0.00 5.00 0.00 0.00 1.00 
2571291.75 1096259.88 2283.28 49601 41120 37779 43176.00 1.00 1.00 1.00 0.00 5.00 0.00 0.00 1.00 
2571291.75 1096259.38 2283.33 50372 41634 39321 43947.00 1.00 1.00 1.00 0.00 5.00 0.00 0.00 1.00 
2571292.00 1096259.88 2281.40 20303 19532 24672 20303.00 1.00 1.00 1.00 0.00 5.00 0.00 0.00 1.00 
2571292.25 1096260.12 2280.91 16448 17476 25186 17990.00 1.00 1.00 1.00 0.00 4.00 0.00 0.00 1.00 
2571292.50 1096260.38 2280.71 16962 17476 24929 17990.00 1.00 1.00 1.00 0.00 4.00 0.00 0.00 1.00 
2571292.50 1096260.62 2280.22 15420 16191 23130 16705.00 1.00 1.00 1.00 0.00 4.00 0.00 0.00 1.00 
2571292.75 1096261.00 2280.22 15934 16191 22102 16705.00 1.00 1.00 1.00 0.00 4.00 0.00 0.00 1.00 
2571291.75 1096260.38 2282.19 40606 34695 33153 36237.00 1.00 1.00 1.00 0.00 5.00 0.00 0.00 1.00 
2571291.75 1096260.38 2281.25 18761 18247 24158 19018.00 1.00 1.00 1.00 0.00 5.00 0.00 0.00 1.00 
2571292.00 1096260.62 2280.96 14392 15934 22873 16191.00 1.00 1.00 1.00 0.00 5.00 0.00 0.00 1.00 
2571292.00 1096261.00 2280.86 15420 16962 23644 17219.00 1.00 1.00 1.00 0.00 5.00 0.00 0.00 1.00 
