VERSION 0.7
FIELDS x y z intensity returnnumber numberofreturns scandirectionflag edgeofflightline classification scananglerank userdata pointsourceid gpstime
SIZE 4 4 4 8 8 8 8 8 8 8 8 8 8
TYPE F F F F F F F F F F F F F
COUNT 1 1 1 1 1 1 1 1 1 1 1 1 1
WIDTH 531
HEIGHT 1
VIEWPOINT 0.0 0.0 0.0 1.0 0.0 0.0 0.0
POINTS 531
DATA ascii
2571912.25 1097261.62 1851.58 1241.00 2.00 2.00 0.00 0.00 5.00 -9.00 0.00 4.00 291023.57 
2571912.75 1097262.12 1853.20 1265.00 1.00 2.00 0.00 0.00 5.00 -9.00 0.00 4.00 291023.57 
2571912.50 1097262.00 1851.64 484.00 2.00 2.00 0.00 0.00 5.00 -9.00 0.00 4.00 291023.57 
2571913.00 1097262.75 1854.24 1096.00 1.00 2.00 0.00 0.00 5.00 -9.00 0.00 4.00 291023.57 
2571913.00 1097262.62 1853.49 1200.00 2.00 2.00 0.00 0.00 5.00 -9.00 0.00 4.00 291023.57 
2571913.25 1097263.12 1854.42 1301.00 1.00 1.00 0.00 0.00 5.00 -9.00 0.00 4.00 291023.57 
2571913.50 1097263.50 1854.19 1123.00 1.00 2.00 0.00 0.00 5.00 -9.00 0.00 4.00 291023.57 
2571913.25 1097263.00 1850.70 522.00 2.00 2.00 0.00 0.00 5.00 -9.00 0.00 4.00 291023.57 
2571913.75 1097263.88 1854.45 1339.00 1.00 1.00 0.00 0.00 5.00 -9.00 0.00 4.00 291023.57 
2571914.00 1097264.25 1854.73 1334.00 1.00 1.00 0.00 0.00 5.00 -9.00 0.00 4.00 291023.57 
2571914.25 1097264.62 1854.13 1161.00 1.00 1.00 0.00 0.00 5.00 -9.00 0.00 4.00 291023.57 
2571914.50 1097265.00 1854.30 581.00 1.00 3.00 0.00 0.00 5.00 -9.00 0.00 4.00 291023.57 
2571914.25 1097264.50 1850.69 810.00 2.00 3.00 0.00 0.00 5.00 -9.00 0.00 4.00 291023.57 
2571913.75 1097263.88 1846.29 1036.00 3.00 3.00 0.00 0.00 5.00 -9.00 0.00 4.00 291023.57 
2571914.00 1097264.25 1846.18 542.00 1.00 2.00 0.00 0.00 5.00 -9.00 0.00 4.00 291023.57 
2571912.50 1097261.00 1851.23 1353.00 1.00 2.00 0.00 0.00 5.00 -9.00 0.00 4.00 291023.57 
2571912.75 1097261.50 1851.51 1297.00 1.00 1.00 0.00 0.00 5.00 -9.00 0.00 4.00 291023.57 
2571913.25 1097262.12 1853.58 1083.00 1.00 2.00 0.00 0.00 5.00 -9.00 0.00 4.00 291023.57 
2571913.00 1097261.88 1851.61 680.00 2.00 2.00 0.00 0.00 5.00 -9.00 0.00 4.00 291023.57 
2571913.50 1097262.50 1853.86 1301.00 1.00 1.00 0.00 0.00 5.00 -9.00 0.00 4.00 291023.57 
2571913.75 1097263.00 1855.03 1265.00 1.00 1.00 0.00 0.00 5.00 -9.00 0.00 4.00 291023.57 
2571914.00 1097263.38 1854.27 1360.00 1.00 1.00 0.00 0.00 5.00 -9.00 0.00 4.00 291023.57 
2571914.25 1097263.62 1853.90 985.00 1.00 2.00 0.00 0.00 5.00 -9.00 0.00 4.00 291023.57 
2571914.00 1097263.38 1852.41 906.00 2.00 2.00 0.00 0.00 5.00 -9.00 0.00 4.00 291023.57 
2571914.00 1097263.38 1848.87 1096.00 1.00 2.00 0.00 0.00 5.00 -9.00 0.00 4.00 291023.57 
2571914.00 1097263.12 1847.66 808.00 2.00 2.00 0.00 0.00 5.00 -9.00 0.00 4.00 291023.57 
2571914.25 1097263.62 1848.11 1323.00 1.00 1.00 0.00 0.00 5.00 -9.00 0.00 4.00 291023.57 
2571914.25 1097263.75 1846.22 1263.00 1.00 1.00 0.00 0.00 5.00 -9.00 0.00 4.00 291023.57 
2571914.25 1097263.62 1842.80 931.00 1.00 3.00 0.00 0.00 5.00 -9.00 0.00 4.00 291023.57 
2571914.25 1097263.62 1842.44 941.00 2.00 3.00 0.00 0.00 5.00 -9.00 0.00 4.00 291023.57 
2571914.25 1097263.75 1840.45 876.00 1.00 2.00 0.00 0.00 5.00 -9.00 0.00 4.00 291023.57 
2571914.75 1097264.50 1843.38 1120.00 1.00 3.00 0.00 0.00 5.00 -9.00 0.00 4.00 291023.57 
2571914.25 1097263.75 1838.45 705.00 2.00 3.00 0.00 0.00 5.00 -9.00 0.00 4.00 291023.57 
2571915.00 1097264.88 1843.51 653.00 1.00 2.00 0.00 0.00 5.00 -9.00 0.00 4.00 291023.57 
2571915.00 1097264.62 1836.37 1437.00 1.00 1.00 0.00 0.00 4.00 -9.00 0.00 4.00 291023.57 
2571915.25 1097265.00 1836.41 1528.00 1.00 1.00 0.00 0.00 4.00 -9.00 0.00 4.00 291023.57 
2571913.25 1097261.12 1851.23 1363.00 1.00 1.00 0.00 0.00 5.00 -9.00 0.00 4.00 291023.56 
2571913.50 1097261.50 1851.70 1295.00 1.00 1.00 0.00 0.00 5.00 -9.00 0.00 4.00 291023.56 
2571913.75 1097262.25 1854.13 355.00 1.00 2.00 0.00 0.00 5.00 -9.00 0.00 4.00 291023.56 
2571913.75 1097262.12 1852.76 1074.00 2.00 2.00 0.00 0.00 5.00 -9.00 0.00 4.00 291023.56 
2571914.00 1097262.62 1853.99 1382.00 1.00 1.00 0.00 0.00 5.00 -9.00 0.00 4.00 291023.56 
2571914.25 1097263.00 1853.86 1339.00 1.00 1.00 0.00 0.00 5.00 -9.00 0.00 4.00 291023.56 
2571914.50 1097263.38 1853.81 1304.00 1.00 2.00 0.00 0.00 5.00 -9.00 0.00 4.00 291023.56 
2571914.50 1097263.12 1852.13 554.00 2.00 2.00 0.00 0.00 5.00 -9.00 0.00 4.00 291023.56 
2571914.75 1097263.75 1853.68 1409.00 1.00 1.00 0.00 0.00 5.00 -9.00 0.00 4.00 291023.56 
2571914.25 1097263.00 1845.47 1255.00 1.00 1.00 0.00 0.00 5.00 -9.00 0.00 4.00 291023.56 
2571914.50 1097263.38 1845.96 699.00 1.00 3.00 0.00 0.00 5.00 -9.00 0.00 4.00 291023.56 
2571914.25 1097262.75 1841.18 748.00 2.00 3.00 0.00 0.00 5.00 -9.00 0.00 4.00 291023.56 
2571914.75 1097263.75 1846.07 239.00 1.00 2.00 0.00 0.00 5.00 -9.00 0.00 4.00 291023.56 
2571914.50 1097263.38 1840.53 156.00 1.00 2.00 0.00 0.00 5.00 -9.00 0.00 4.00 291023.56 
2571914.75 1097263.50 1838.55 459.00 1.00 2.00 0.00 0.00 5.00 -9.00 0.00 4.00 291023.56 
2571914.75 1097263.62 1836.47 1029.00 1.00 2.00 0.00 0.00 4.00 -9.00 0.00 4.00 291023.56 
2571915.25 1097264.25 1838.59 526.00 1.00 2.00 0.00 0.00 5.00 -9.00 0.00 4.00 291023.56 
2571915.25 1097264.50 1837.21 1191.00 1.00 1.00 0.00 0.00 4.00 -9.00 0.00 4.00 291023.56 
2571915.50 1097264.75 1836.71 1471.00 1.00 1.00 0.00 0.00 4.00 -9.00 0.00 4.00 291023.56 
2571915.75 1097265.12 1836.52 1515.00 1.00 1.00 0.00 0.00 4.00 -9.00 0.00 4.00 291023.56 
2571913.75 1097261.00 1850.97 1245.00 1.00 1.00 0.00 0.00 5.00 -9.00 0.00 4.00 291023.55 
2571913.75 1097261.38 1850.92 1039.00 1.00 2.00 0.00 0.00 5.00 -9.00 0.00 4.00 291023.55 
2571913.75 1097261.25 1849.97 921.00 2.00 2.00 0.00 0.00 5.00 -9.00 0.00 4.00 291023.55 
2571914.50 1097262.12 1853.85 1241.00 1.00 3.00 0.00 0.00 5.00 -9.00 0.00 4.00 291023.55 
2571914.25 1097261.75 1851.26 628.00 2.00 3.00 0.00 0.00 5.00 -9.00 0.00 4.00 291023.55 
2571914.00 1097261.62 1849.81 196.00 3.00 3.00 0.00 0.00 5.00 -9.00 0.00 4.00 291023.55 
2571914.50 1097262.50 1853.66 1382.00 1.00 1.00 0.00 0.00 5.00 -9.00 0.00 4.00 291023.55 
2571914.75 1097262.88 1853.49 1222.00 1.00 2.00 0.00 0.00 5.00 -9.00 0.00 4.00 291023.55 
2571914.75 1097262.62 1852.18 678.00 2.00 2.00 0.00 0.00 5.00 -9.00 0.00 4.00 291023.55 
2571915.00 1097263.25 1853.49 1199.00 1.00 2.00 0.00 0.00 5.00 -9.00 0.00 4.00 291023.55 
2571915.00 1097263.00 1851.99 473.00 2.00 2.00 0.00 0.00 5.00 -9.00 0.00 4.00 291023.55 
2571915.25 1097263.38 1851.90 1174.00 1.00 2.00 0.00 0.00 5.00 -9.00 0.00 4.00 291023.55 
2571914.25 1097262.00 1839.10 514.00 1.00 2.00 0.00 0.00 5.00 -9.00 0.00 4.00 291023.55 
2571915.50 1097263.75 1838.76 878.00 1.00 3.00 0.00 0.00 5.00 -9.00 0.00 4.00 291023.55 
2571915.25 1097263.50 1836.44 586.00 2.00 3.00 0.00 0.00 4.00 -9.00 0.00 4.00 291023.55 
2571915.75 1097264.12 1838.73 1193.00 1.00 1.00 0.00 0.00 5.00 -9.00 0.00 4.00 291023.55 
2571915.75 1097264.38 1837.55 1300.00 1.00 1.00 0.00 0.00 5.00 -9.00 0.00 4.00 291023.55 
2571916.00 1097264.62 1836.48 1310.00 1.00 1.00 0.00 0.00 4.00 -9.00 0.00 4.00 291023.55 
2571916.25 1097265.00 1836.09 1405.00 1.00 1.00 0.00 0.00 4.00 -9.00 0.00 4.00 291023.55 
2571914.00 1097260.75 1849.85 1330.00 1.00 1.00 0.00 0.00 5.00 -9.00 0.00 4.00 291023.54 
2571914.25 1097261.12 1849.76 1170.00 1.00 1.00 0.00 0.00 5.00 -9.00 0.00 4.00 291023.54 
2571914.50 1097261.88 1852.04 653.00 1.00 3.00 0.00 0.00 5.00 -9.00 0.00 4.00 291023.54 
2571914.25 1097261.50 1849.46 1186.00 2.00 3.00 0.00 0.00 5.00 -9.00 0.00 4.00 291023.54 
2571914.75 1097262.25 1852.02 1301.00 1.00 1.00 0.00 0.00 21.00 -9.00 0.00 4.00 291023.54 
2571915.25 1097262.88 1853.44 1342.00 1.00 2.00 0.00 0.00 5.00 -9.00 0.00 4.00 291023.54 
2571915.00 1097262.62 1851.57 524.00 2.00 2.00 0.00 0.00 5.00 -9.00 0.00 4.00 291023.54 
2571915.50 1097263.12 1853.33 1067.00 1.00 3.00 0.00 0.00 5.00 -9.00 0.00 4.00 291023.54 
2571915.25 1097262.88 1850.95 861.00 2.00 3.00 0.00 0.00 5.00 -9.00 0.00 4.00 291023.54 
2571914.50 1097261.50 1838.75 951.00 1.00 2.00 0.00 0.00 5.00 -9.00 0.00 4.00 291023.54 
2571914.75 1097262.00 1838.73 297.00 1.00 2.00 0.00 0.00 5.00 -9.00 0.00 4.00 291023.54 
2571914.75 1097262.25 1838.13 842.00 1.00 2.00 0.00 0.00 5.00 -9.00 0.00 4.00 291023.54 
2571915.00 1097262.62 1838.06 954.00 1.00 2.00 0.00 0.00 5.00 -9.00 0.00 4.00 291023.54 
2571915.25 1097263.00 1835.73 666.00 1.00 2.00 0.00 0.00 4.00 -9.00 0.00 4.00 291023.54 
2571915.75 1097263.88 1838.76 1310.00 1.00 1.00 0.00 0.00 5.00 -9.00 0.00 4.00 291023.54 
2571916.00 1097264.12 1838.29 1168.00 1.00 1.00 0.00 0.00 5.00 -9.00 0.00 4.00 291023.54 
2571914.25 1097260.62 1849.63 1387.00 1.00 1.00 0.00 0.00 5.00 -9.00 0.00 4.00 291023.54 
2571914.50 1097261.00 1849.51 799.00 1.00 3.00 0.00 0.00 5.00 -9.00 0.00 4.00 291023.54 
2571915.00 1097261.75 1851.91 415.00 1.00 3.00 0.00 0.00 5.00 -9.00 0.00 4.00 291023.54 
2571915.50 1097262.38 1853.49 397.00 1.00 3.00 0.00 0.00 5.00 -9.00 0.00 4.00 291023.54 
2571914.75 1097261.25 1846.01 1294.00 2.00 3.00 0.00 0.00 5.00 -9.00 0.00 4.00 291023.54 
2571915.75 1097262.75 1853.45 1143.00 1.00 3.00 0.00 0.00 5.00 -9.00 0.00 4.00 291023.54 
2571914.50 1097261.00 1838.65 1136.00 1.00 2.00 0.00 0.00 5.00 -9.00 0.00 4.00 291023.54 
2571914.75 1097261.38 1838.34 1004.00 1.00 2.00 0.00 0.00 5.00 -9.00 0.00 4.00 291023.54 
2571915.00 1097261.75 1838.23 983.00 1.00 2.00 0.00 0.00 5.00 -9.00 0.00 4.00 291023.54 
2571915.25 1097262.12 1838.08 1249.00 1.00 2.00 0.00 0.00 5.00 -9.00 0.00 4.00 291023.54 
2571915.50 1097262.50 1838.03 890.00 1.00 3.00 0.00 0.00 5.00 -9.00 0.00 4.00 291023.54 
2571915.50 1097262.25 1836.53 449.00 2.00 3.00 0.00 0.00 5.00 -9.00 0.00 4.00 291023.54 
2571915.75 1097262.75 1837.22 319.00 1.00 2.00 0.00 0.00 5.00 -9.00 0.00 4.00 291023.54 
2571916.50 1097264.00 1838.17 679.00 1.00 2.00 0.00 0.00 21.00 -9.00 0.00 4.00 291023.54 
2571916.75 1097264.25 1836.99 675.00 1.00 2.00 0.00 0.00 4.00 -9.00 0.00 4.00 291023.54 
2571915.00 1097260.88 1845.87 1340.00 1.00 2.00 0.00 0.00 21.00 -9.00 0.00 4.00 291023.53 
2571915.25 1097261.25 1845.76 255.00 1.00 3.00 0.00 0.00 5.00 -9.00 0.00 4.00 291023.53 
2571914.75 1097260.62 1838.34 1402.00 1.00 2.00 0.00 0.00 5.00 -9.00 0.00 4.00 291023.53 
2571915.00 1097261.00 1838.30 1398.00 1.00 1.00 0.00 0.00 21.00 -9.00 0.00 4.00 291023.53 
2571915.25 1097261.38 1838.15 1359.00 1.00 2.00 0.00 0.00 5.00 -9.00 0.00 4.00 291023.53 
2571915.50 1097261.75 1837.86 1288.00 1.00 2.00 0.00 0.00 5.00 -9.00 0.00 4.00 291023.53 
2571915.75 1097262.12 1837.68 569.00 1.00 3.00 0.00 0.00 5.00 -9.00 0.00 4.00 291023.53 
2571916.25 1097262.75 1836.98 398.00 1.00 2.00 0.00 0.00 5.00 -9.00 0.00 4.00 291023.53 
2571917.00 1097264.00 1837.60 617.00 1.00 2.00 0.00 0.00 21.00 -9.00 0.00 4.00 291023.53 
2571915.00 1097260.62 1849.43 1154.00 1.00 3.00 0.00 0.00 5.00 -9.00 0.00 4.00 291023.53 
2571916.25 1097261.62 1834.24 1008.00 1.00 2.00 0.00 0.00 4.00 -9.00 0.00 4.00 291023.52 
2571917.75 1097263.88 1836.87 565.00 1.00 2.00 0.00 0.00 5.00 -9.00 0.00 4.00 291023.52 
2571917.75 1097264.25 1836.68 711.00 1.00 2.00 0.00 0.00 5.00 -9.00 0.00 4.00 291023.52 
2571915.25 1097260.12 1837.73 1158.00 1.00 3.00 0.00 0.00 5.00 -9.00 0.00 4.00 291023.52 
2571915.50 1097260.50 1837.20 1216.00 1.00 2.00 0.00 0.00 5.00 -9.00 0.00 4.00 291023.52 
2571915.25 1097260.25 1835.14 493.00 2.00 2.00 0.00 0.00 5.00 -9.00 0.00 4.00 291023.52 
2571915.75 1097260.88 1837.63 770.00 1.00 3.00 0.00 0.00 5.00 -9.00 0.00 4.00 291023.52 
2571915.50 1097260.62 1835.23 1132.00 2.00 3.00 0.00 0.00 5.00 -9.00 0.00 4.00 291023.52 
2571915.75 1097260.88 1834.81 1003.00 1.00 2.00 0.00 0.00 5.00 -9.00 0.00 4.00 291023.52 
2571916.00 1097261.25 1834.34 982.00 1.00 2.00 0.00 0.00 4.00 -9.00 0.00 4.00 291023.52 
2571916.75 1097259.38 1834.35 437.00 1.00 2.00 0.00 0.00 5.00 -9.00 0.00 4.00 291023.49 
2571917.00 1097259.75 1834.30 96.00 1.00 2.00 0.00 0.00 5.00 -9.00 0.00 4.00 291023.49 
2571917.25 1097259.88 1832.59 628.00 1.00 2.00 0.00 0.00 4.00 -9.00 0.00 4.00 291023.49 
2571916.25 1097259.25 1835.15 1058.00 1.00 2.00 0.00 0.00 5.00 -9.00 0.00 4.00 291023.50 
2571916.50 1097259.62 1835.28 1212.00 1.00 2.00 0.00 0.00 5.00 -9.00 0.00 4.00 291023.50 
2571916.50 1097260.00 1834.90 1163.00 1.00 1.00 0.00 0.00 5.00 -9.00 0.00 4.00 291023.50 
2571916.75 1097260.38 1834.46 1207.00 1.00 2.00 0.00 0.00 21.00 -9.00 0.00 4.00 291023.50 
2571916.75 1097260.12 1833.11 376.00 2.00 2.00 0.00 0.00 4.00 -9.00 0.00 4.00 291023.50 
2571915.75 1097259.38 1834.90 1066.00 1.00 2.00 0.00 0.00 5.00 -9.00 0.00 4.00 291023.51 
2571916.00 1097259.88 1836.07 1319.00 1.00 1.00 0.00 0.00 5.00 -9.00 0.00 4.00 291023.51 
2571916.25 1097260.12 1835.40 1365.00 1.00 1.00 0.00 0.00 5.00 -9.00 0.00 4.00 291023.51 
2571916.50 1097260.50 1835.05 1161.00 1.00 1.00 0.00 0.00 5.00 -9.00 0.00 4.00 291023.51 
2571916.50 1097260.62 1833.26 1088.00 1.00 1.00 0.00 0.00 4.00 -9.00 0.00 4.00 291023.51 
2571915.75 1097260.25 1835.50 1300.00 1.00 1.00 0.00 0.00 5.00 -9.00 0.00 4.00 291023.51 
2571916.00 1097260.50 1835.21 1194.00 1.00 1.00 0.00 0.00 5.00 -9.00 0.00 4.00 291023.51 
2571916.25 1097260.88 1834.65 1086.00 1.00 2.00 0.00 0.00 5.00 -9.00 0.00 4.00 291023.51 
2571916.25 1097261.12 1834.21 953.00 1.00 2.00 0.00 0.00 4.00 -9.00 0.00 4.00 291023.51 
2571918.00 1097263.75 1835.78 168.00 1.00 2.00 0.00 0.00 4.00 -9.00 0.00 4.00 291023.51 
2571916.50 1097259.62 1835.43 668.00 3.00 4.00 0.00 0.00 5.00 -9.00 0.00 5.00 291284.50 
2571916.25 1097260.00 1835.47 411.00 3.00 3.00 0.00 0.00 5.00 -9.00 0.00 5.00 291284.49 
2571916.75 1097260.25 1835.27 796.00 1.00 2.00 0.00 0.00 5.00 -9.00 0.00 5.00 291284.49 
2571916.25 1097261.00 1832.92 388.00 4.00 4.00 0.00 0.00 20.00 -9.00 0.00 5.00 291284.48 
2571914.75 1097260.75 1849.60 552.00 1.00 2.00 0.00 0.00 5.00 -9.00 0.00 5.00 291284.47 
2571914.00 1097260.75 1849.88 1426.00 1.00 1.00 0.00 0.00 21.00 -9.00 0.00 5.00 291284.46 
2571914.50 1097261.00 1849.69 586.00 1.00 3.00 0.00 0.00 5.00 -9.00 0.00 5.00 291284.46 
2571915.00 1097261.25 1846.15 987.00 2.00 3.00 0.00 0.00 5.00 -9.00 0.00 5.00 291284.46 
2571912.50 1097260.38 1838.73 285.00 4.00 4.00 0.00 0.00 5.00 -9.00 0.00 5.00 291284.45 
2571913.50 1097260.88 1838.97 403.00 5.00 5.00 0.00 0.00 5.00 -9.00 0.00 5.00 291284.45 
2571913.50 1097260.88 1850.79 1319.00 1.00 1.00 0.00 0.00 5.00 -9.00 0.00 5.00 291284.45 
2571913.75 1097261.12 1851.27 1315.00 1.00 3.00 0.00 0.00 5.00 -9.00 0.00 5.00 291284.45 
2571914.00 1097261.25 1849.70 572.00 2.00 3.00 0.00 0.00 5.00 -9.00 0.00 5.00 291284.45 
2571914.50 1097261.50 1846.38 502.00 3.00 3.00 0.00 0.00 5.00 -9.00 0.00 5.00 291284.45 
2571914.50 1097261.50 1849.59 1232.00 1.00 3.00 0.00 0.00 5.00 -9.00 0.00 5.00 291284.45 
2571914.75 1097261.62 1846.59 408.00 2.00 3.00 0.00 0.00 5.00 -9.00 0.00 5.00 291284.45 
2571915.00 1097261.75 1852.02 867.00 1.00 2.00 0.00 0.00 21.00 -9.00 0.00 5.00 291284.45 
2571912.50 1097260.75 1839.62 618.00 6.00 6.00 0.00 0.00 5.00 -9.00 0.00 5.00 291284.45 
2571913.00 1097261.00 1839.70 438.00 3.00 3.00 0.00 0.00 5.00 -9.00 0.00 5.00 291284.45 
2571913.00 1097261.00 1851.33 1408.00 1.00 1.00 0.00 0.00 5.00 -9.00 0.00 5.00 291284.45 
2571913.50 1097261.25 1851.34 1495.00 1.00 1.00 0.00 0.00 5.00 -9.00 0.00 5.00 291284.45 
2571914.00 1097261.50 1850.99 1239.00 1.00 1.00 0.00 0.00 5.00 -9.00 0.00 5.00 291284.45 
2571914.25 1097261.75 1851.31 1242.00 1.00 2.00 0.00 0.00 5.00 -9.00 0.00 5.00 291284.45 
2571914.50 1097261.75 1853.76 531.00 1.00 3.00 0.00 0.00 5.00 -9.00 0.00 5.00 291284.45 
2571914.75 1097261.88 1851.97 1334.00 2.00 3.00 0.00 0.00 5.00 -9.00 0.00 5.00 291284.45 
2571915.25 1097262.12 1851.77 988.00 1.00 2.00 0.00 0.00 5.00 -9.00 0.00 5.00 291284.45 
2571915.25 1097262.25 1853.40 723.00 1.00 2.00 0.00 0.00 5.00 -9.00 0.00 5.00 291284.45 
2571915.75 1097262.50 1853.63 946.00 1.00 2.00 0.00 0.00 5.00 -9.00 0.00 5.00 291284.45 
2571913.00 1097261.50 1838.24 122.00 4.00 4.00 0.00 0.00 5.00 -9.00 0.00 5.00 291284.44 
2571912.25 1097261.12 1849.51 396.00 2.00 2.00 0.00 0.00 5.00 -9.00 0.00 5.00 291284.44 
2571912.50 1097261.25 1851.40 1314.00 1.00 1.00 0.00 0.00 5.00 -9.00 0.00 5.00 291284.44 
2571912.75 1097261.38 1851.60 1325.00 1.00 2.00 0.00 0.00 5.00 -9.00 0.00 5.00 291284.44 
2571913.00 1097261.50 1850.15 188.00 2.00 2.00 0.00 0.00 5.00 -9.00 0.00 5.00 291284.44 
2571913.25 1097261.62 1851.73 1507.00 1.00 1.00 0.00 0.00 5.00 -9.00 0.00 5.00 291284.44 
2571913.50 1097261.88 1851.86 1326.00 1.00 1.00 0.00 0.00 5.00 -9.00 0.00 5.00 291284.44 
2571914.00 1097262.00 1852.45 1341.00 1.00 1.00 0.00 0.00 5.00 -9.00 0.00 5.00 291284.44 
2571914.25 1097262.12 1853.96 1332.00 1.00 2.00 0.00 0.00 5.00 -9.00 0.00 5.00 291284.44 
2571914.50 1097262.25 1852.16 586.00 2.00 2.00 0.00 0.00 5.00 -9.00 0.00 5.00 291284.44 
2571914.50 1097262.38 1853.62 1304.00 1.00 2.00 0.00 0.00 21.00 -9.00 0.00 5.00 291284.44 
2571915.00 1097262.62 1851.57 335.00 2.00 2.00 0.00 0.00 5.00 -9.00 0.00 5.00 291284.44 
2571915.00 1097262.62 1853.45 1318.00 1.00 2.00 0.00 0.00 5.00 -9.00 0.00 5.00 291284.44 
2571915.50 1097262.88 1853.51 545.00 1.00 3.00 0.00 0.00 5.00 -9.00 0.00 5.00 291284.44 
2571917.75 1097264.12 1836.70 772.00 2.00 3.00 0.00 0.00 21.00 -9.00 0.00 5.00 291284.44 
2571911.75 1097261.25 1849.12 222.00 2.00 2.00 0.00 0.00 5.00 -9.00 0.00 5.00 291284.43 
2571911.75 1097261.38 1851.15 1218.00 1.00 2.00 0.00 0.00 5.00 -9.00 0.00 5.00 291284.43 
2571912.00 1097261.50 1849.24 653.00 2.00 2.00 0.00 0.00 5.00 -9.00 0.00 5.00 291284.43 
2571912.25 1097261.50 1851.62 1250.00 1.00 1.00 0.00 0.00 5.00 -9.00 0.00 5.00 291284.43 
2571912.50 1097261.75 1851.70 1429.00 1.00 1.00 0.00 0.00 21.00 -9.00 0.00 5.00 291284.43 
2571912.75 1097261.88 1853.35 444.00 1.00 2.00 0.00 0.00 5.00 -9.00 0.00 5.00 291284.43 
2571913.00 1097262.00 1851.74 1334.00 2.00 2.00 0.00 0.00 5.00 -9.00 0.00 5.00 291284.43 
2571913.25 1097262.00 1853.66 1184.00 1.00 1.00 0.00 0.00 5.00 -9.00 0.00 5.00 291284.43 
2571913.50 1097262.25 1854.10 1193.00 1.00 2.00 0.00 0.00 5.00 -9.00 0.00 5.00 291284.43 
2571913.75 1097262.38 1852.65 805.00 2.00 2.00 0.00 0.00 5.00 -9.00 0.00 5.00 291284.43 
2571914.00 1097262.50 1854.08 1428.00 1.00 1.00 0.00 0.00 5.00 -9.00 0.00 5.00 291284.43 
2571914.50 1097262.75 1853.65 1391.00 1.00 1.00 0.00 0.00 5.00 -9.00 0.00 5.00 291284.43 
2571914.75 1097263.00 1853.54 1382.00 1.00 3.00 0.00 0.00 5.00 -9.00 0.00 5.00 291284.43 
2571915.00 1097263.12 1851.97 239.00 2.00 3.00 0.00 0.00 5.00 -9.00 0.00 5.00 291284.43 
2571915.25 1097263.25 1853.56 1223.00 1.00 2.00 0.00 0.00 5.00 -9.00 0.00 5.00 291284.43 
2571912.00 1097261.50 1840.32 257.00 3.00 5.00 0.00 0.00 5.00 -9.00 0.00 5.00 291284.43 
2571912.50 1097261.62 1837.97 465.00 4.00 5.00 0.00 0.00 5.00 -9.00 0.00 5.00 291284.43 
2571912.00 1097261.38 1844.50 926.00 2.00 3.00 0.00 0.00 5.00 -9.00 0.00 5.00 291284.43 
2571912.75 1097261.75 1838.72 858.00 3.00 3.00 0.00 0.00 5.00 -9.00 0.00 5.00 291284.43 
2571911.25 1097261.38 1846.11 489.00 2.00 5.00 0.00 0.00 5.00 -9.00 0.00 5.00 291284.42 
2571912.00 1097261.75 1841.00 697.00 3.00 5.00 0.00 0.00 5.00 -9.00 0.00 5.00 291284.42 
2571912.25 1097262.00 1838.59 472.00 4.00 5.00 0.00 0.00 5.00 -9.00 0.00 5.00 291284.42 
2571911.50 1097261.62 1846.23 866.00 3.00 4.00 0.00 0.00 5.00 -9.00 0.00 5.00 291284.42 
2571912.25 1097262.00 1841.12 246.00 4.00 4.00 0.00 0.00 5.00 -9.00 0.00 5.00 291284.42 
2571911.75 1097261.62 1851.65 1160.00 1.00 3.00 0.00 0.00 5.00 -9.00 0.00 5.00 291284.42 
2571911.75 1097261.75 1850.48 671.00 2.00 3.00 0.00 0.00 21.00 -9.00 0.00 5.00 291284.42 
2571912.25 1097262.00 1847.55 419.00 3.00 3.00 0.00 0.00 5.00 -9.00 0.00 5.00 291284.42 
2571912.00 1097261.88 1852.28 1289.00 1.00 2.00 0.00 0.00 5.00 -9.00 0.00 5.00 291284.42 
2571912.25 1097262.00 1850.50 272.00 2.00 2.00 0.00 0.00 5.00 -9.00 0.00 5.00 291284.42 
2571912.25 1097262.00 1853.13 1109.00 1.00 3.00 0.00 0.00 5.00 -9.00 0.00 5.00 291284.42 
2571912.50 1097262.12 1851.92 269.00 2.00 3.00 0.00 0.00 5.00 -9.00 0.00 5.00 291284.42 
2571912.75 1097262.25 1850.50 696.00 3.00 3.00 0.00 0.00 5.00 -9.00 0.00 5.00 291284.42 
2571912.75 1097262.25 1853.43 1376.00 1.00 1.00 0.00 0.00 5.00 -9.00 0.00 5.00 291284.42 
2571913.00 1097262.38 1853.62 1401.00 1.00 1.00 0.00 0.00 21.00 -9.00 0.00 5.00 291284.42 
2571913.50 1097262.62 1853.93 1355.00 1.00 1.00 0.00 0.00 5.00 -9.00 0.00 5.00 291284.42 
2571913.75 1097262.88 1854.35 1377.00 1.00 1.00 0.00 0.00 5.00 -9.00 0.00 5.00 291284.42 
2571914.25 1097263.00 1854.21 1472.00 1.00 1.00 0.00 0.00 5.00 -9.00 0.00 5.00 291284.42 
2571914.75 1097263.38 1853.81 1518.00 1.00 2.00 0.00 0.00 5.00 -9.00 0.00 5.00 291284.42 
2571915.25 1097263.62 1853.72 220.00 1.00 2.00 0.00 0.00 21.00 -9.00 0.00 5.00 291284.42 
2571912.00 1097262.12 1838.56 594.00 3.00 4.00 0.00 0.00 5.00 -9.00 0.00 5.00 291284.41 
2571911.50 1097261.75 1846.38 1238.00 3.00 5.00 0.00 0.00 5.00 -9.00 0.00 5.00 291284.41 
2571912.25 1097262.12 1841.08 474.00 4.00 5.00 0.00 0.00 5.00 -9.00 0.00 5.00 291284.41 
2571911.75 1097261.88 1847.41 497.00 2.00 2.00 0.00 0.00 5.00 -9.00 0.00 5.00 291284.41 
2571911.50 1097261.88 1851.70 1029.00 1.00 3.00 0.00 0.00 5.00 -9.00 0.00 5.00 291284.41 
2571911.75 1097261.88 1850.31 744.00 2.00 3.00 0.00 0.00 5.00 -9.00 0.00 5.00 291284.41 
2571911.75 1097262.00 1852.54 1158.00 1.00 3.00 0.00 0.00 5.00 -9.00 0.00 5.00 291284.41 
2571912.50 1097262.25 1848.59 470.00 3.00 3.00 0.00 0.00 5.00 -9.00 0.00 5.00 291284.41 
2571912.25 1097262.25 1852.74 959.00 1.00 3.00 0.00 0.00 5.00 -9.00 0.00 5.00 291284.41 
2571912.50 1097262.25 1851.85 360.00 2.00 3.00 0.00 0.00 5.00 -9.00 0.00 5.00 291284.41 
2571912.50 1097262.38 1850.48 869.00 3.00 3.00 0.00 0.00 5.00 -9.00 0.00 5.00 291284.41 
2571912.50 1097262.38 1853.56 1427.00 1.00 1.00 0.00 0.00 5.00 -9.00 0.00 5.00 291284.41 
2571913.00 1097262.62 1853.54 1407.00 1.00 1.00 0.00 0.00 21.00 -9.00 0.00 5.00 291284.41 
2571913.25 1097262.75 1854.37 1446.00 1.00 1.00 0.00 0.00 5.00 -9.00 0.00 5.00 291284.41 
2571913.75 1097263.00 1854.73 1400.00 1.00 1.00 0.00 0.00 5.00 -9.00 0.00 5.00 291284.41 
2571914.00 1097263.25 1854.34 1390.00 1.00 2.00 0.00 0.00 5.00 -9.00 0.00 5.00 291284.41 
2571914.50 1097263.50 1853.84 1418.00 1.00 1.00 0.00 0.00 5.00 -9.00 0.00 5.00 291284.41 
2571915.00 1097263.75 1853.74 213.00 1.00 2.00 0.00 0.00 5.00 -9.00 0.00 5.00 291284.41 
2571911.75 1097262.38 1838.52 556.00 1.00 2.00 0.00 0.00 5.00 -9.00 0.00 5.00 291284.41 
2571912.50 1097262.88 1850.97 160.00 2.00 2.00 0.00 0.00 5.00 -9.00 0.00 5.00 291284.41 
2571912.50 1097262.88 1853.99 435.00 1.00 4.00 0.00 0.00 5.00 -9.00 0.00 5.00 291284.41 
2571912.75 1097263.00 1852.81 653.00 2.00 4.00 0.00 0.00 5.00 -9.00 0.00 5.00 291284.41 
2571913.00 1097263.12 1851.01 882.00 3.00 4.00 0.00 0.00 5.00 -9.00 0.00 5.00 291284.41 
2571913.25 1097263.25 1849.06 462.00 4.00 4.00 0.00 0.00 5.00 -9.00 0.00 5.00 291284.41 
2571913.00 1097263.12 1854.48 1390.00 1.00 2.00 0.00 0.00 5.00 -9.00 0.00 5.00 291284.41 
2571913.25 1097263.25 1851.73 153.00 2.00 2.00 0.00 0.00 5.00 -9.00 0.00 5.00 291284.41 
2571913.50 1097263.25 1854.38 1115.00 1.00 3.00 0.00 0.00 5.00 -9.00 0.00 5.00 291284.41 
2571914.25 1097263.75 1848.15 442.00 2.00 3.00 0.00 0.00 5.00 -9.00 0.00 5.00 291284.41 
2571915.75 1097264.62 1836.64 969.00 3.00 3.00 0.00 0.00 4.00 -9.00 0.00 5.00 291284.41 
2571913.75 1097263.50 1854.55 1449.00 1.00 1.00 0.00 0.00 5.00 -9.00 0.00 5.00 291284.41 
2571914.25 1097263.75 1854.47 348.00 1.00 2.00 0.00 0.00 5.00 -9.00 0.00 5.00 291284.41 
2571914.75 1097264.00 1853.85 366.00 1.00 2.00 0.00 0.00 5.00 -9.00 0.00 5.00 291284.41 
2571913.00 1097263.38 1847.22 459.00 3.00 3.00 0.00 0.00 5.00 -9.00 0.00 5.00 291284.40 
2571912.50 1097263.12 1852.71 1210.00 1.00 1.00 0.00 0.00 5.00 -9.00 0.00 5.00 291284.40 
2571912.75 1097263.25 1854.41 846.00 1.00 2.00 0.00 0.00 21.00 -9.00 0.00 5.00 291284.40 
2571913.00 1097263.38 1853.00 992.00 2.00 2.00 0.00 0.00 5.00 -9.00 0.00 5.00 291284.40 
2571913.25 1097263.50 1854.33 1289.00 1.00 2.00 0.00 0.00 5.00 -9.00 0.00 5.00 291284.40 
2571913.50 1097263.75 1851.06 562.00 2.00 2.00 0.00 0.00 5.00 -9.00 0.00 5.00 291284.40 
2571913.50 1097263.75 1854.39 1238.00 1.00 2.00 0.00 0.00 5.00 -9.00 0.00 5.00 291284.40 
2571916.00 1097265.12 1836.47 1116.00 2.00 2.00 0.00 0.00 4.00 -9.00 0.00 5.00 291284.40 
2571914.00 1097264.00 1854.67 1330.00 1.00 2.00 0.00 0.00 5.00 -9.00 0.00 5.00 291284.40 
2571914.50 1097264.25 1853.95 183.00 1.00 2.00 0.00 0.00 5.00 -9.00 0.00 5.00 291284.40 
2571912.25 1097263.38 1852.83 1414.00 1.00 2.00 0.00 0.00 5.00 -9.00 0.00 5.00 291284.39 
2571913.25 1097263.88 1846.46 198.00 2.00 2.00 0.00 0.00 5.00 -9.00 0.00 5.00 291284.39 
2571912.75 1097263.62 1852.78 1202.00 1.00 2.00 0.00 0.00 5.00 -9.00 0.00 5.00 291284.39 
2571913.00 1097263.75 1851.38 855.00 2.00 2.00 0.00 0.00 5.00 -9.00 0.00 5.00 291284.39 
2571913.00 1097263.75 1854.37 557.00 1.00 2.00 0.00 0.00 5.00 -9.00 0.00 5.00 291284.39 
2571913.25 1097264.00 1851.41 1332.00 2.00 2.00 0.00 0.00 5.00 -9.00 0.00 5.00 291284.39 
2571913.25 1097264.00 1854.46 1050.00 1.00 4.00 0.00 0.00 5.00 -9.00 0.00 5.00 291284.39 
2571913.75 1097264.25 1850.89 618.00 2.00 4.00 0.00 0.00 5.00 -9.00 0.00 5.00 291284.39 
2571914.75 1097264.75 1843.64 617.00 3.00 4.00 0.00 0.00 5.00 -9.00 0.00 5.00 291284.39 
2571915.75 1097265.38 1836.49 855.00 4.00 4.00 0.00 0.00 4.00 -9.00 0.00 5.00 291284.39 
2571913.75 1097264.12 1854.79 1326.00 1.00 2.00 0.00 0.00 5.00 -9.00 0.00 5.00 291284.39 
2571916.25 1097265.62 1836.55 807.00 2.00 2.00 0.00 0.00 4.00 -9.00 0.00 5.00 291284.39 
2571914.00 1097264.38 1854.98 1161.00 1.00 2.00 0.00 0.00 5.00 -9.00 0.00 5.00 291284.39 
2571912.25 1097263.62 1849.29 201.00 2.00 2.00 0.00 0.00 5.00 -9.00 0.00 5.00 291284.38 
2571912.00 1097263.62 1852.84 1358.00 1.00 1.00 0.00 0.00 5.00 -9.00 0.00 5.00 291284.38 
2571912.50 1097263.88 1852.77 1420.00 1.00 1.00 0.00 0.00 5.00 -9.00 0.00 5.00 291284.38 
2571913.25 1097264.25 1851.10 1255.00 1.00 2.00 0.00 0.00 5.00 -9.00 0.00 5.00 291284.38 
2571913.50 1097264.38 1849.30 825.00 2.00 2.00 0.00 0.00 5.00 -9.00 0.00 5.00 291284.38 
2571913.50 1097264.50 1850.88 1367.00 1.00 3.00 0.00 0.00 5.00 -9.00 0.00 5.00 291284.38 
2571914.50 1097265.00 1843.52 577.00 2.00 3.00 0.00 0.00 21.00 -9.00 0.00 5.00 291284.38 
2571913.50 1097264.38 1854.76 647.00 1.00 3.00 0.00 0.00 5.00 -9.00 0.00 5.00 291284.38 
2571914.00 1097264.75 1850.82 1074.00 2.00 3.00 0.00 0.00 5.00 -9.00 0.00 5.00 291284.38 
2571913.75 1097264.62 1855.12 1394.00 1.00 2.00 0.00 0.00 5.00 -9.00 0.00 5.00 291284.38 
2571914.25 1097264.88 1854.75 522.00 1.00 2.00 0.00 0.00 5.00 -9.00 0.00 5.00 291284.38 
2571911.50 1097263.88 1845.64 154.00 2.00 4.00 0.00 0.00 5.00 -9.00 0.00 5.00 291284.38 
2571911.75 1097264.00 1844.50 115.00 3.00 4.00 0.00 0.00 5.00 -9.00 0.00 5.00 291284.38 
2571911.75 1097263.88 1848.50 852.00 2.00 2.00 0.00 0.00 5.00 -9.00 0.00 5.00 291284.38 
2571911.50 1097263.88 1852.22 1190.00 1.00 1.00 0.00 0.00 5.00 -9.00 0.00 5.00 291284.38 
2571911.75 1097264.00 1852.90 1036.00 1.00 3.00 0.00 0.00 5.00 -9.00 0.00 5.00 291284.38 
2571912.00 1097264.12 1852.17 408.00 2.00 3.00 0.00 0.00 5.00 -9.00 0.00 5.00 291284.38 
2571912.50 1097264.38 1847.80 268.00 3.00 3.00 0.00 0.00 5.00 -9.00 0.00 5.00 291284.38 
2571912.25 1097264.25 1852.70 1015.00 1.00 3.00 0.00 0.00 5.00 -9.00 0.00 5.00 291284.38 
2571912.50 1097264.38 1850.98 1076.00 2.00 3.00 0.00 0.00 5.00 -9.00 0.00 5.00 291284.38 
2571913.25 1097264.75 1846.18 151.00 3.00 3.00 0.00 0.00 5.00 -9.00 0.00 5.00 291284.38 
2571912.75 1097264.50 1852.67 394.00 1.00 2.00 0.00 0.00 5.00 -9.00 0.00 5.00 291284.38 
2571913.00 1097264.62 1850.86 1283.00 2.00 2.00 0.00 0.00 21.00 -9.00 0.00 5.00 291284.38 
2571913.50 1097264.88 1850.78 1397.00 1.00 3.00 0.00 0.00 5.00 -9.00 0.00 5.00 291284.38 
2571914.50 1097265.50 1843.34 415.00 2.00 3.00 0.00 0.00 5.00 -9.00 0.00 5.00 291284.38 
2571914.75 1097265.75 1843.28 1238.00 1.00 2.00 0.00 0.00 5.00 -9.00 0.00 5.00 291284.38 
2571915.25 1097265.88 1842.99 714.00 1.00 2.00 0.00 0.00 5.00 -9.00 0.00 5.00 291284.38 
2571911.50 1097264.25 1845.50 493.00 3.00 5.00 0.00 0.00 5.00 -9.00 0.00 5.00 291284.37 
2571911.75 1097264.50 1843.19 367.00 4.00 5.00 0.00 0.00 5.00 -9.00 0.00 5.00 291284.37 
2571911.50 1097264.25 1848.40 849.00 2.00 2.00 0.00 0.00 21.00 -9.00 0.00 5.00 291284.37 
2571911.50 1097264.25 1852.06 1355.00 1.00 2.00 0.00 0.00 21.00 -9.00 0.00 5.00 291284.37 
2571912.00 1097264.50 1848.54 482.00 2.00 2.00 0.00 0.00 5.00 -9.00 0.00 5.00 291284.37 
2571911.75 1097264.50 1851.86 994.00 1.00 3.00 0.00 0.00 5.00 -9.00 0.00 5.00 291284.37 
2571912.00 1097264.62 1850.59 663.00 2.00 3.00 0.00 0.00 5.00 -9.00 0.00 5.00 291284.37 
2571912.50 1097264.75 1847.72 732.00 3.00 3.00 0.00 0.00 5.00 -9.00 0.00 5.00 291284.37 
2571912.50 1097264.75 1850.81 1327.00 1.00 2.00 0.00 0.00 5.00 -9.00 0.00 5.00 291284.37 
2571913.00 1097265.12 1845.89 578.00 2.00 2.00 0.00 0.00 5.00 -9.00 0.00 5.00 291284.37 
2571912.75 1097265.00 1850.81 1060.00 1.00 2.00 0.00 0.00 5.00 -9.00 0.00 5.00 291284.37 
2571914.00 1097265.62 1842.35 837.00 2.00 2.00 0.00 0.00 5.00 -9.00 0.00 5.00 291284.37 
2571913.25 1097265.25 1850.69 1194.00 1.00 3.00 0.00 0.00 5.00 -9.00 0.00 5.00 291284.37 
2571914.50 1097265.88 1842.42 784.00 2.00 3.00 0.00 0.00 5.00 -9.00 0.00 5.00 291284.37 
2571914.75 1097266.12 1843.24 1100.00 1.00 2.00 0.00 0.00 21.00 -9.00 0.00 5.00 291284.37 
2571911.00 1097264.50 1845.27 259.00 1.00 4.00 0.00 0.00 5.00 -9.00 0.00 5.00 291284.36 
2571911.25 1097264.62 1843.46 658.00 2.00 4.00 0.00 0.00 5.00 -9.00 0.00 5.00 291284.36 
2571911.25 1097264.75 1842.85 960.00 3.00 4.00 0.00 0.00 5.00 -9.00 0.00 5.00 291284.36 
2571911.00 1097264.62 1848.04 640.00 1.00 3.00 0.00 0.00 5.00 -9.00 0.00 5.00 291284.36 
2571911.50 1097264.75 1845.43 1118.00 2.00 3.00 0.00 0.00 5.00 -9.00 0.00 5.00 291284.36 
2571911.50 1097264.88 1844.08 717.00 3.00 3.00 0.00 0.00 5.00 -9.00 0.00 5.00 291284.36 
2571911.00 1097264.62 1851.38 1289.00 1.00 2.00 0.00 0.00 21.00 -9.00 0.00 5.00 291284.36 
2571911.50 1097264.88 1847.19 476.00 2.00 2.00 0.00 0.00 5.00 -9.00 0.00 5.00 291284.36 
2571911.25 1097264.75 1851.83 1222.00 1.00 2.00 0.00 0.00 21.00 -9.00 0.00 5.00 291284.36 
2571911.75 1097265.00 1848.50 785.00 2.00 2.00 0.00 0.00 5.00 -9.00 0.00 5.00 291284.36 
2571912.25 1097265.25 1847.68 256.00 1.00 4.00 0.00 0.00 5.00 -9.00 0.00 5.00 291284.36 
2571912.75 1097265.50 1845.66 1208.00 2.00 4.00 0.00 0.00 5.00 -9.00 0.00 5.00 291284.36 
2571913.00 1097265.62 1843.32 555.00 3.00 4.00 0.00 0.00 5.00 -9.00 0.00 5.00 291284.36 
2571913.50 1097265.88 1839.55 196.00 4.00 4.00 0.00 0.00 5.00 -9.00 0.00 5.00 291284.36 
2571913.00 1097265.75 1845.61 872.00 1.00 3.00 0.00 0.00 21.00 -9.00 0.00 5.00 291284.36 
2571913.50 1097265.88 1842.57 1064.00 2.00 3.00 0.00 0.00 5.00 -9.00 0.00 5.00 291284.36 
2571914.00 1097266.12 1839.88 249.00 3.00 3.00 0.00 0.00 5.00 -9.00 0.00 5.00 291284.36 
2571914.00 1097266.12 1842.55 1135.00 1.00 2.00 0.00 0.00 5.00 -9.00 0.00 5.00 291284.36 
2571914.25 1097266.38 1840.08 494.00 2.00 2.00 0.00 0.00 5.00 -9.00 0.00 5.00 291284.36 
2571914.25 1097266.38 1842.43 244.00 1.00 3.00 0.00 0.00 5.00 -9.00 0.00 5.00 291284.36 
2571914.75 1097266.62 1840.17 1242.00 2.00 3.00 0.00 0.00 5.00 -9.00 0.00 5.00 291284.36 
2571915.00 1097266.75 1840.44 1032.00 1.00 2.00 0.00 0.00 5.00 -9.00 0.00 5.00 291284.36 
2571915.50 1097267.00 1840.74 1017.00 1.00 2.00 0.00 0.00 5.00 -9.00 0.00 5.00 291284.36 
2571913.50 1097266.25 1842.23 811.00 2.00 3.00 0.00 0.00 5.00 -9.00 0.00 5.00 291284.35 
2571913.75 1097266.38 1840.44 1207.00 3.00 3.00 0.00 0.00 5.00 -9.00 0.00 5.00 291284.35 
2571914.00 1097266.50 1841.88 489.00 1.00 2.00 0.00 0.00 5.00 -9.00 0.00 5.00 291284.35 
2571914.00 1097266.62 1840.78 1300.00 2.00 2.00 0.00 0.00 5.00 -9.00 0.00 5.00 291284.35 
2571914.50 1097266.88 1841.06 1433.00 1.00 1.00 0.00 0.00 5.00 -9.00 0.00 5.00 291284.35 
2571915.00 1097267.12 1840.81 1471.00 1.00 1.00 0.00 0.00 5.00 -9.00 0.00 5.00 291284.35 
2571915.25 1097267.38 1840.77 1478.00 1.00 2.00 0.00 0.00 5.00 -9.00 0.00 5.00 291284.35 
2571915.75 1097267.62 1840.46 415.00 1.00 2.00 0.00 0.00 5.00 -9.00 0.00 5.00 291284.35 
2571911.25 1097265.00 1843.75 284.00 1.00 3.00 0.00 0.00 5.00 -9.00 0.00 5.00 291284.35 
2571911.25 1097265.12 1845.05 937.00 1.00 3.00 0.00 0.00 5.00 -9.00 0.00 5.00 291284.35 
2571911.50 1097265.25 1843.86 207.00 2.00 3.00 0.00 0.00 5.00 -9.00 0.00 5.00 291284.35 
2571912.25 1097265.62 1838.85 921.00 3.00 3.00 0.00 0.00 4.00 -9.00 0.00 5.00 291284.35 
2571911.00 1097264.88 1851.45 1073.00 1.00 3.00 0.00 0.00 5.00 -9.00 0.00 5.00 291284.35 
2571911.50 1097265.12 1847.77 379.00 2.00 3.00 0.00 0.00 5.00 -9.00 0.00 5.00 291284.35 
2571911.75 1097265.38 1845.35 958.00 3.00 3.00 0.00 0.00 5.00 -9.00 0.00 5.00 291284.35 
2571911.75 1097265.38 1848.29 978.00 1.00 2.00 0.00 0.00 5.00 -9.00 0.00 5.00 291284.35 
2571912.00 1097265.50 1845.54 1087.00 2.00 2.00 0.00 0.00 5.00 -9.00 0.00 5.00 291284.35 
2571912.50 1097265.75 1845.51 1386.00 1.00 2.00 0.00 0.00 21.00 -9.00 0.00 5.00 291284.35 
2571913.25 1097266.25 1840.04 276.00 2.00 2.00 0.00 0.00 5.00 -9.00 0.00 5.00 291284.35 
2571913.00 1097266.00 1845.45 260.00 1.00 3.00 0.00 0.00 5.00 -9.00 0.00 5.00 291284.35 
2571911.50 1097265.88 1839.16 1546.00 1.00 1.00 0.00 0.00 4.00 -9.00 0.00 5.00 291284.35 
2571912.00 1097266.12 1839.44 1499.00 1.00 1.00 0.00 0.00 4.00 -9.00 0.00 5.00 291284.35 
2571911.75 1097265.88 1845.07 1403.00 1.00 2.00 0.00 0.00 21.00 -9.00 0.00 5.00 291284.35 
2571912.25 1097266.38 1839.91 569.00 2.00 2.00 0.00 0.00 4.00 -9.00 0.00 5.00 291284.35 
2571912.00 1097266.12 1844.85 1197.00 1.00 2.00 0.00 0.00 5.00 -9.00 0.00 5.00 291284.35 
2571912.75 1097266.50 1840.17 1059.00 2.00 2.00 0.00 0.00 5.00 -9.00 0.00 5.00 291284.35 
2571913.00 1097266.62 1842.01 402.00 1.00 2.00 0.00 0.00 5.00 -9.00 0.00 5.00 291284.35 
2571913.00 1097266.75 1840.57 1492.00 2.00 2.00 0.00 0.00 5.00 -9.00 0.00 5.00 291284.35 
2571913.50 1097266.88 1840.98 1562.00 1.00 1.00 0.00 0.00 5.00 -9.00 0.00 5.00 291284.35 
2571913.75 1097267.12 1841.20 1461.00 1.00 1.00 0.00 0.00 5.00 -9.00 0.00 5.00 291284.35 
2571914.25 1097267.38 1841.48 1540.00 1.00 1.00 0.00 0.00 5.00 -9.00 0.00 5.00 291284.35 
2571914.75 1097267.62 1841.39 1413.00 1.00 1.00 0.00 0.00 5.00 -9.00 0.00 5.00 291284.35 
2571915.00 1097267.88 1841.09 1444.00 1.00 1.00 0.00 0.00 5.00 -9.00 0.00 5.00 291284.35 
2571915.75 1097268.12 1840.61 614.00 1.00 2.00 0.00 0.00 5.00 -9.00 0.00 5.00 291284.35 
2571911.25 1097266.25 1839.28 1468.00 1.00 1.00 0.00 0.00 4.00 -9.00 0.00 5.00 291284.34 
2571911.50 1097266.38 1839.85 1571.00 1.00 1.00 0.00 0.00 4.00 -9.00 0.00 5.00 291284.34 
2571912.00 1097266.62 1840.10 1537.00 1.00 1.00 0.00 0.00 4.00 -9.00 0.00 5.00 291284.34 
2571912.25 1097266.75 1840.33 1625.00 1.00 1.00 0.00 0.00 4.00 -9.00 0.00 5.00 291284.34 
2571912.75 1097267.00 1840.64 1576.00 1.00 1.00 0.00 0.00 5.00 -9.00 0.00 5.00 291284.34 
2571913.00 1097267.25 1840.96 1550.00 1.00 1.00 0.00 0.00 5.00 -9.00 0.00 5.00 291284.34 
2571913.50 1097267.50 1841.35 1470.00 1.00 1.00 0.00 0.00 5.00 -9.00 0.00 5.00 291284.34 
2571913.75 1097267.62 1841.60 1533.00 1.00 1.00 0.00 0.00 5.00 -9.00 0.00 5.00 291284.34 
2571914.25 1097267.88 1841.77 1432.00 1.00 1.00 0.00 0.00 5.00 -9.00 0.00 5.00 291284.34 
2571914.75 1097268.12 1841.58 1322.00 1.00 1.00 0.00 0.00 5.00 -9.00 0.00 5.00 291284.34 
2571915.25 1097268.50 1840.42 1307.00 1.00 1.00 0.00 0.00 4.00 -9.00 0.00 5.00 291284.34 
2571915.75 1097268.75 1839.89 766.00 1.00 2.00 0.00 0.00 4.00 -9.00 0.00 5.00 291284.34 
2571911.00 1097266.75 1839.91 1658.00 1.00 1.00 0.00 0.00 4.00 -9.00 0.00 5.00 291284.33 
2571911.50 1097266.88 1840.18 1612.00 1.00 1.00 0.00 0.00 4.00 -9.00 0.00 5.00 291284.33 
2571911.75 1097267.12 1840.50 1550.00 1.00 1.00 0.00 0.00 4.00 -9.00 0.00 5.00 291284.33 
2571912.25 1097267.38 1840.86 1602.00 1.00 1.00 0.00 0.00 4.00 -9.00 0.00 5.00 291284.33 
2571912.50 1097267.50 1841.16 1598.00 1.00 1.00 0.00 0.00 5.00 -9.00 0.00 5.00 291284.33 
2571913.00 1097267.75 1841.40 1522.00 1.00 1.00 0.00 0.00 5.00 -9.00 0.00 5.00 291284.33 
2571913.25 1097268.00 1841.66 1616.00 1.00 1.00 0.00 0.00 5.00 -9.00 0.00 5.00 291284.33 
2571913.75 1097268.25 1841.77 1591.00 1.00 1.00 0.00 0.00 5.00 -9.00 0.00 5.00 291284.33 
2571914.00 1097268.38 1841.75 1514.00 1.00 1.00 0.00 0.00 5.00 -9.00 0.00 5.00 291284.33 
2571914.75 1097268.75 1840.61 1526.00 1.00 1.00 0.00 0.00 4.00 -9.00 0.00 5.00 291284.33 
2571915.25 1097269.00 1840.29 1473.00 1.00 1.00 0.00 0.00 4.00 -9.00 0.00 5.00 291284.33 
2571914.50 1097269.12 1840.86 1496.00 1.00 1.00 0.00 0.00 4.00 -9.00 0.00 5.00 291284.32 
2571915.00 1097269.38 1840.62 1536.00 1.00 1.00 0.00 0.00 4.00 -9.00 0.00 5.00 291284.32 
2571910.50 1097266.88 1839.57 1613.00 1.00 1.00 0.00 0.00 4.00 -9.00 0.00 5.00 291284.32 
2571911.00 1097267.12 1839.97 1638.00 1.00 1.00 0.00 0.00 4.00 -9.00 0.00 5.00 291284.32 
2571911.25 1097267.25 1840.35 1575.00 1.00 1.00 0.00 0.00 4.00 -9.00 0.00 5.00 291284.32 
2571911.75 1097267.50 1840.72 1583.00 1.00 1.00 0.00 0.00 4.00 -9.00 0.00 5.00 291284.32 
2571912.00 1097267.75 1841.07 1618.00 1.00 1.00 0.00 0.00 4.00 -9.00 0.00 5.00 291284.32 
2571912.50 1097267.88 1841.38 1558.00 1.00 1.00 0.00 0.00 4.00 -9.00 0.00 5.00 291284.32 
2571912.75 1097268.12 1841.71 1583.00 1.00 1.00 0.00 0.00 5.00 -9.00 0.00 5.00 291284.32 
2571913.25 1097268.38 1841.82 1568.00 1.00 1.00 0.00 0.00 5.00 -9.00 0.00 5.00 291284.32 
2571913.50 1097268.62 1841.58 1511.00 1.00 1.00 0.00 0.00 5.00 -9.00 0.00 5.00 291284.32 
2571914.00 1097268.88 1841.18 1576.00 1.00 1.00 0.00 0.00 20.00 -9.00 0.00 5.00 291284.32 
2571910.75 1097267.62 1840.08 1389.00 1.00 1.00 0.00 0.00 4.00 -9.00 0.00 5.00 291284.32 
2571912.25 1097268.50 1841.58 1529.00 1.00 1.00 0.00 0.00 4.00 -9.00 0.00 5.00 291284.32 
2571916.75 1097259.75 1834.97 1068.00 1.00 3.00 0.00 0.00 5.00 -9.00 0.00 4.00 291021.47 
2571916.50 1097259.62 1833.00 610.00 2.00 3.00 0.00 0.00 4.00 -9.00 0.00 4.00 291021.47 
2571916.25 1097259.50 1835.41 1270.00 1.00 2.00 0.00 0.00 5.00 -9.00 0.00 4.00 291021.47 
2571916.00 1097259.38 1835.11 609.00 1.00 2.00 0.00 0.00 5.00 -9.00 0.00 4.00 291021.47 
2571917.25 1097260.00 1832.63 684.00 1.00 2.00 0.00 0.00 20.00 -9.00 0.00 4.00 291021.47 
2571917.00 1097259.88 1834.38 733.00 1.00 3.00 0.00 0.00 5.00 -9.00 0.00 4.00 291021.47 
2571916.75 1097259.75 1832.80 242.00 2.00 3.00 0.00 0.00 4.00 -9.00 0.00 4.00 291021.47 
2571917.00 1097260.50 1834.41 637.00 1.00 3.00 0.00 0.00 5.00 -9.00 0.00 4.00 291021.48 
2571916.75 1097260.38 1832.64 585.00 2.00 3.00 0.00 0.00 4.00 -9.00 0.00 4.00 291021.48 
2571916.75 1097260.25 1834.51 1343.00 1.00 2.00 0.00 0.00 5.00 -9.00 0.00 4.00 291021.48 
2571916.50 1097260.12 1833.11 361.00 2.00 2.00 0.00 0.00 4.00 -9.00 0.00 4.00 291021.48 
2571916.50 1097260.12 1835.35 1490.00 1.00 1.00 0.00 0.00 5.00 -9.00 0.00 4.00 291021.48 
2571916.00 1097260.00 1835.88 1399.00 1.00 1.00 0.00 0.00 5.00 -9.00 0.00 4.00 291021.48 
2571916.50 1097260.88 1833.26 1086.00 1.00 2.00 0.00 0.00 4.00 -9.00 0.00 4.00 291021.48 
2571916.50 1097260.75 1835.11 1095.00 1.00 2.00 0.00 0.00 5.00 -9.00 0.00 4.00 291021.48 
2571916.25 1097260.62 1833.31 626.00 2.00 2.00 0.00 0.00 4.00 -9.00 0.00 4.00 291021.48 
2571916.00 1097260.50 1834.93 1296.00 1.00 2.00 0.00 0.00 5.00 -9.00 0.00 4.00 291021.48 
2571915.75 1097260.38 1835.56 1458.00 1.00 1.00 0.00 0.00 5.00 -9.00 0.00 4.00 291021.48 
2571915.75 1097260.38 1837.64 617.00 1.00 2.00 0.00 0.00 5.00 -9.00 0.00 4.00 291021.48 
2571915.25 1097260.12 1835.05 1204.00 2.00 2.00 0.00 0.00 21.00 -9.00 0.00 4.00 291021.48 
2571915.25 1097260.12 1837.72 1001.00 1.00 3.00 0.00 0.00 21.00 -9.00 0.00 4.00 291021.48 
2571916.25 1097261.12 1832.96 1510.00 1.00 1.00 0.00 0.00 4.00 -9.00 0.00 4.00 291021.49 
2571916.00 1097261.00 1834.40 1167.00 1.00 2.00 0.00 0.00 4.00 -9.00 0.00 4.00 291021.49 
2571915.75 1097260.88 1834.82 1244.00 1.00 2.00 0.00 0.00 21.00 -9.00 0.00 4.00 291021.49 
2571915.50 1097260.62 1835.25 1400.00 1.00 2.00 0.00 0.00 21.00 -9.00 0.00 4.00 291021.49 
2571915.25 1097260.62 1837.37 1417.00 1.00 2.00 0.00 0.00 5.00 -9.00 0.00 4.00 291021.49 
2571915.00 1097260.50 1835.13 138.00 2.00 2.00 0.00 0.00 5.00 -9.00 0.00 4.00 291021.49 
2571915.00 1097260.50 1838.18 1528.00 1.00 1.00 0.00 0.00 5.00 -9.00 0.00 4.00 291021.49 
2571913.00 1097259.38 1837.72 1003.00 3.00 4.00 0.00 0.00 5.00 -9.00 0.00 4.00 291021.49 
2571916.25 1097261.62 1834.30 1263.00 1.00 2.00 0.00 0.00 4.00 -9.00 0.00 4.00 291021.50 
2571915.75 1097261.50 1834.44 717.00 1.00 2.00 0.00 0.00 4.00 -9.00 0.00 4.00 291021.50 
2571916.00 1097261.50 1837.52 242.00 1.00 2.00 0.00 0.00 5.00 -9.00 0.00 4.00 291021.50 
2571915.50 1097261.25 1837.78 1435.00 1.00 1.00 0.00 0.00 5.00 -9.00 0.00 4.00 291021.50 
2571915.25 1097261.12 1838.25 1522.00 1.00 2.00 0.00 0.00 21.00 -9.00 0.00 4.00 291021.50 
2571914.75 1097260.88 1838.41 1440.00 1.00 2.00 0.00 0.00 5.00 -9.00 0.00 4.00 291021.50 
2571915.00 1097261.12 1845.90 1352.00 1.00 3.00 0.00 0.00 5.00 -9.00 0.00 4.00 291021.50 
2571914.75 1097260.88 1846.03 862.00 1.00 4.00 0.00 0.00 5.00 -9.00 0.00 4.00 291021.50 
2571914.75 1097261.00 1849.43 785.00 1.00 4.00 0.00 0.00 5.00 -9.00 0.00 4.00 291021.50 
2571914.50 1097260.75 1849.64 1448.00 1.00 1.00 0.00 0.00 5.00 -9.00 0.00 4.00 291021.50 
2571915.75 1097261.88 1837.76 1302.00 1.00 3.00 0.00 0.00 5.00 -9.00 0.00 4.00 291021.51 
2571915.25 1097261.75 1835.14 224.00 2.00 3.00 0.00 0.00 4.00 -9.00 0.00 4.00 291021.51 
2571915.25 1097261.75 1838.16 1500.00 1.00 2.00 0.00 0.00 5.00 -9.00 0.00 4.00 291021.51 
2571915.00 1097261.50 1838.44 1415.00 1.00 2.00 0.00 0.00 5.00 -9.00 0.00 4.00 291021.51 
2571914.75 1097261.38 1838.55 984.00 1.00 2.00 0.00 0.00 5.00 -9.00 0.00 4.00 291021.51 
2571915.00 1097261.50 1846.07 1404.00 1.00 3.00 0.00 0.00 5.00 -9.00 0.00 4.00 291021.51 
2571913.75 1097261.00 1838.84 316.00 2.00 3.00 0.00 0.00 5.00 -9.00 0.00 4.00 291021.51 
2571914.50 1097261.25 1846.03 887.00 1.00 3.00 0.00 0.00 5.00 -9.00 0.00 4.00 291021.51 
2571914.00 1097261.00 1842.73 1300.00 2.00 3.00 0.00 0.00 5.00 -9.00 0.00 4.00 291021.51 
2571913.50 1097260.75 1838.75 514.00 3.00 3.00 0.00 0.00 5.00 -9.00 0.00 4.00 291021.51 
2571914.00 1097261.00 1845.76 905.00 1.00 4.00 0.00 0.00 5.00 -9.00 0.00 4.00 291021.51 
2571913.75 1097260.88 1842.78 651.00 2.00 4.00 0.00 0.00 5.00 -9.00 0.00 4.00 291021.51 
2571914.25 1097261.12 1849.77 1110.00 1.00 2.00 0.00 0.00 5.00 -9.00 0.00 4.00 291021.51 
2571912.75 1097260.38 1838.67 153.00 2.00 2.00 0.00 0.00 5.00 -9.00 0.00 4.00 291021.51 
2571914.00 1097261.00 1849.89 1563.00 1.00 2.00 0.00 0.00 5.00 -9.00 0.00 4.00 291021.51 
2571913.50 1097260.75 1847.76 214.00 2.00 2.00 0.00 0.00 5.00 -9.00 0.00 4.00 291021.51 
2571913.50 1097260.75 1850.59 1170.00 1.00 3.00 0.00 0.00 5.00 -9.00 0.00 4.00 291021.51 
2571913.50 1097260.75 1849.28 873.00 2.00 3.00 0.00 0.00 5.00 -9.00 0.00 4.00 291021.51 
2571915.50 1097262.38 1837.95 1392.00 1.00 2.00 0.00 0.00 5.00 -9.00 0.00 4.00 291021.51 
2571915.00 1097262.12 1838.19 1219.00 1.00 2.00 0.00 0.00 5.00 -9.00 0.00 4.00 291021.51 
2571914.75 1097262.00 1838.72 180.00 1.00 2.00 0.00 0.00 5.00 -9.00 0.00 4.00 291021.51 
2571914.25 1097261.75 1838.93 716.00 1.00 2.00 0.00 0.00 5.00 -9.00 0.00 4.00 291021.51 
2571914.00 1097261.62 1838.95 1146.00 1.00 2.00 0.00 0.00 5.00 -9.00 0.00 4.00 291021.51 
2571915.75 1097262.50 1853.63 658.00 1.00 3.00 0.00 0.00 21.00 -9.00 0.00 4.00 291021.51 
2571914.75 1097262.00 1846.42 1276.00 2.00 3.00 0.00 0.00 5.00 -9.00 0.00 4.00 291021.51 
2571915.00 1097262.12 1851.85 1165.00 1.00 4.00 0.00 0.00 5.00 -9.00 0.00 4.00 291021.51 
2571913.75 1097261.50 1843.44 234.00 2.00 4.00 0.00 0.00 5.00 -9.00 0.00 4.00 291021.51 
2571913.75 1097261.50 1843.10 362.00 3.00 4.00 0.00 0.00 5.00 -9.00 0.00 4.00 291021.51 
2571913.25 1097261.25 1838.95 605.00 4.00 4.00 0.00 0.00 5.00 -9.00 0.00 4.00 291021.51 
2571914.75 1097262.00 1852.05 1125.00 1.00 3.00 0.00 0.00 5.00 -9.00 0.00 4.00 291021.51 
2571914.50 1097261.88 1850.92 601.00 2.00 3.00 0.00 0.00 5.00 -9.00 0.00 4.00 291021.51 
2571914.50 1097261.75 1849.66 1224.00 3.00 3.00 0.00 0.00 21.00 -9.00 0.00 4.00 291021.51 
2571914.25 1097261.75 1851.27 1033.00 1.00 3.00 0.00 0.00 21.00 -9.00 0.00 4.00 291021.51 
2571914.00 1097261.62 1849.80 1176.00 2.00 3.00 0.00 0.00 21.00 -9.00 0.00 4.00 291021.51 
2571913.50 1097261.25 1845.71 354.00 3.00 3.00 0.00 0.00 5.00 -9.00 0.00 4.00 291021.51 
2571913.75 1097261.50 1851.22 1238.00 1.00 2.00 0.00 0.00 21.00 -9.00 0.00 4.00 291021.51 
2571913.50 1097261.38 1849.92 1036.00 2.00 2.00 0.00 0.00 5.00 -9.00 0.00 4.00 291021.51 
2571913.50 1097261.25 1851.20 1434.00 1.00 1.00 0.00 0.00 5.00 -9.00 0.00 4.00 291021.51 
2571913.00 1097261.12 1851.28 1431.00 1.00 1.00 0.00 0.00 21.00 -9.00 0.00 4.00 291021.51 
2571913.25 1097261.62 1851.55 1485.00 1.00 1.00 0.00 0.00 5.00 -9.00 0.00 4.00 291021.52 
2571912.75 1097261.38 1851.43 1391.00 1.00 2.00 0.00 0.00 5.00 -9.00 0.00 4.00 291021.52 
2571912.50 1097261.38 1849.86 528.00 2.00 2.00 0.00 0.00 5.00 -9.00 0.00 4.00 291021.52 
2571912.50 1097261.25 1851.31 1495.00 1.00 1.00 0.00 0.00 5.00 -9.00 0.00 4.00 291021.52 
2571917.75 1097264.00 1836.57 293.00 1.00 2.00 0.00 0.00 5.00 -9.00 0.00 4.00 291021.52 
2571917.50 1097263.88 1836.94 284.00 1.00 2.00 0.00 0.00 5.00 -9.00 0.00 4.00 291021.52 
2571916.00 1097263.00 1837.49 506.00 1.00 2.00 0.00 0.00 5.00 -9.00 0.00 4.00 291021.52 
2571915.50 1097262.88 1837.21 689.00 1.00 2.00 0.00 0.00 5.00 -9.00 0.00 4.00 291021.52 
2571915.25 1097262.62 1838.02 1083.00 1.00 2.00 0.00 0.00 5.00 -9.00 0.00 4.00 291021.52 
2571914.75 1097262.50 1838.19 1092.00 1.00 2.00 0.00 0.00 5.00 -9.00 0.00 4.00 291021.52 
2571914.25 1097262.12 1839.29 502.00 1.00 2.00 0.00 0.00 5.00 -9.00 0.00 4.00 291021.52 
2571913.75 1097262.00 1839.48 912.00 1.00 2.00 0.00 0.00 5.00 -9.00 0.00 4.00 291021.52 
2571915.50 1097262.75 1853.50 1405.00 1.00 2.00 0.00 0.00 21.00 -9.00 0.00 4.00 291021.52 
2571915.25 1097262.62 1851.38 255.00 2.00 2.00 0.00 0.00 5.00 -9.00 0.00 4.00 291021.52 
2571915.00 1097262.50 1852.03 1498.00 1.00 1.00 0.00 0.00 5.00 -9.00 0.00 4.00 291021.52 
2571914.75 1097262.38 1853.61 1273.00 1.00 2.00 0.00 0.00 5.00 -9.00 0.00 4.00 291021.52 
2571914.50 1097262.25 1851.79 899.00 2.00 2.00 0.00 0.00 5.00 -9.00 0.00 4.00 291021.52 
2571914.25 1097262.25 1853.77 1316.00 1.00 2.00 0.00 0.00 5.00 -9.00 0.00 4.00 291021.52 
2571914.00 1097262.00 1851.88 494.00 2.00 2.00 0.00 0.00 5.00 -9.00 0.00 4.00 291021.52 
2571913.75 1097261.88 1852.59 796.00 1.00 2.00 0.00 0.00 5.00 -9.00 0.00 4.00 291021.52 
2571913.50 1097261.88 1851.49 1297.00 2.00 2.00 0.00 0.00 5.00 -9.00 0.00 4.00 291021.52 
2571917.25 1097264.12 1837.43 328.00 1.00 2.00 0.00 0.00 5.00 -9.00 0.00 4.00 291021.53 
2571916.75 1097264.00 1837.83 668.00 1.00 2.00 0.00 0.00 5.00 -9.00 0.00 4.00 291021.53 
2571916.25 1097263.62 1836.02 524.00 1.00 2.00 0.00 0.00 4.00 -9.00 0.00 4.00 291021.53 
2571915.75 1097263.38 1835.45 631.00 1.00 2.00 0.00 0.00 4.00 -9.00 0.00 4.00 291021.53 
2571915.25 1097263.25 1836.15 773.00 1.00 2.00 0.00 0.00 4.00 -9.00 0.00 4.00 291021.53 
2571914.00 1097262.62 1841.16 785.00 1.00 3.00 0.00 0.00 5.00 -9.00 0.00 4.00 291021.53 
2571913.75 1097262.38 1838.71 287.00 2.00 3.00 0.00 0.00 5.00 -9.00 0.00 4.00 291021.53 
2571915.50 1097263.25 1853.42 1129.00 1.00 3.00 0.00 0.00 5.00 -9.00 0.00 4.00 291021.53 
2571915.00 1097263.12 1850.89 1064.00 2.00 3.00 0.00 0.00 5.00 -9.00 0.00 4.00 291021.53 
2571914.25 1097262.75 1845.50 291.00 3.00 3.00 0.00 0.00 5.00 -9.00 0.00 4.00 291021.53 
2571915.00 1097263.12 1853.51 1592.00 1.00 1.00 0.00 0.00 21.00 -9.00 0.00 4.00 291021.53 
2571914.75 1097262.88 1853.61 1410.00 1.00 2.00 0.00 0.00 5.00 -9.00 0.00 4.00 291021.53 
2571914.50 1097262.75 1852.24 593.00 2.00 2.00 0.00 0.00 5.00 -9.00 0.00 4.00 291021.53 
2571914.25 1097262.75 1853.86 1468.00 1.00 2.00 0.00 0.00 5.00 -9.00 0.00 4.00 291021.53 
2571914.25 1097262.62 1852.78 816.00 2.00 2.00 0.00 0.00 5.00 -9.00 0.00 4.00 291021.53 
