VERSION 0.7
FIELDS x y z red green blue intensity returnnumber numberofreturns scandirectionflag edgeofflightline classification scananglerank userdata pointsourceid
SIZE 4 4 4 2 2 2 8 8 8 8 8 8 8 8 8
TYPE F F F U U U F F F F F F F F F
COUNT 1 1 1 1 1 1 1 1 1 1 1 1 1 1 1
WIDTH 195
HEIGHT 1
VIEWPOINT 0.0 0.0 0.0 1.0 0.0 0.0 0.0
POINTS 195
DATA ascii
2570624.25 1096257.25 2171.60 42919 42148 47802 42919.00 1.00 1.00 1.00 0.00 4.00 0.00 0.00 1.00 
2570624.75 1096257.88 2171.55 32639 28784 31354 30069.00 1.00 1.00 1.00 0.00 4.00 0.00 0.00 1.00 
2570623.50 1096258.50 2171.85 36751 37008 43433 37522.00 1.00 1.00 1.00 0.00 4.00 0.00 0.00 1.00 
2570624.00 1096259.25 2171.50 27756 28013 32896 28270.00 1.00 1.00 1.00 0.00 4.00 0.00 0.00 1.00 
2570622.50 1096258.00 2171.70 29555 29812 36237 30326.00 1.00 1.00 1.00 0.00 4.00 0.00 0.00 1.00 
2570623.00 1096258.50 2171.90 34181 34952 40863 35209.00 1.00 1.00 1.00 0.00 4.00 0.00 0.00 1.00 
2570623.25 1096259.00 2171.80 36494 37265 42919 37522.00 1.00 1.00 1.00 0.00 4.00 0.00 0.00 1.00 
2570623.75 1096259.62 2171.45 33153 33410 39321 33924.00 1.00 1.00 1.00 0.00 4.00 0.00 0.00 1.00 
2570622.25 1096258.50 2171.30 25957 26471 33153 26985.00 1.00 1.00 1.00 0.00 4.00 0.00 0.00 1.00 
2570622.50 1096259.00 2171.55 34438 35466 42405 35723.00 1.00 1.00 1.00 0.00 4.00 0.00 0.00 1.00 
2570623.00 1096259.50 2171.55 38036 38550 44718 39064.00 1.00 1.00 1.00 0.00 4.00 0.00 0.00 1.00 
2570625.00 1096257.88 2171.90 30583 28270 33153 29298.00 1.00 1.00 1.00 0.00 4.00 0.00 0.00 1.00 
2570624.00 1096257.38 2171.70 43433 43176 47545 43690.00 1.00 1.00 1.00 0.00 4.00 0.00 0.00 1.00 
2570624.75 1096259.38 2171.25 31097 31097 35209 31354.00 1.00 1.00 1.00 0.00 4.00 0.00 0.00 1.00 
2570624.00 1096259.38 2171.45 30583 30583 35980 31097.00 1.00 1.00 1.00 0.00 4.00 0.00 0.00 1.00 
2570623.50 1096258.88 2171.65 31868 32125 37265 32382.00 1.00 1.00 1.00 0.00 4.00 0.00 0.00 1.00 
2570623.25 1096258.38 2171.90 36751 37008 43947 37522.00 1.00 1.00 1.00 0.00 20.00 0.00 0.00 1.00 
2570623.50 1096259.88 2171.45 37779 38036 44204 38550.00 1.00 1.00 1.00 0.00 4.00 0.00 0.00 1.00 
2570623.25 1096259.38 2171.50 38550 39321 45232 39578.00 1.00 1.00 1.00 0.00 20.00 0.00 0.00 1.00 
2570623.00 1096259.00 2171.65 36494 37265 43690 37522.00 1.00 1.00 1.00 0.00 4.00 0.00 0.00 1.00 
2570622.50 1096258.50 2171.65 31611 31868 38807 32382.00 1.00 1.00 1.00 0.00 4.00 0.00 0.00 1.00 
2570622.25 1096258.12 2171.35 27756 28013 34695 28527.00 1.00 1.00 1.00 0.00 4.00 0.00 0.00 1.00 
2570625.00 1096258.00 2171.90 30583 27756 32639 29041.00 1.00 1.00 1.00 0.00 20.00 0.00 0.00 1.00 
2570623.75 1096257.00 2171.80 46517 46260 50115 46517.00 1.00 1.00 1.00 0.00 4.00 0.00 0.00 1.00 
2570624.00 1096257.38 2171.60 44975 44718 49344 45232.00 1.00 1.00 1.00 0.00 4.00 0.00 0.00 1.00 
2570623.75 1096257.50 2171.90 43690 43433 48316 43947.00 1.00 1.00 1.00 0.00 4.00 0.00 0.00 1.00 
2570624.50 1096258.75 2171.90 27499 24415 26728 25443.00 1.00 1.00 1.00 0.00 4.00 0.00 0.00 1.00 
2570624.75 1096259.12 2171.11 28784 27756 32125 28527.00 1.00 1.00 1.00 0.00 4.00 0.00 0.00 1.00 
2570624.25 1096259.12 2171.45 26728 26471 30583 26985.00 1.00 1.00 1.00 0.00 4.00 0.00 0.00 1.00 
2570624.50 1096259.50 2171.35 31354 31354 35723 31611.00 1.00 1.00 1.00 0.00 4.00 0.00 0.00 1.00 
2570623.00 1096258.00 2171.90 36237 36751 42662 37008.00 1.00 1.00 1.00 0.00 20.00 0.00 0.00 1.00 
2570623.25 1096258.38 2171.90 37265 37522 43433 38036.00 1.00 1.00 1.00 0.00 4.00 0.00 0.00 1.00 
2570623.50 1096258.75 2171.70 30840 31097 36751 31611.00 1.00 1.00 1.00 0.00 20.00 0.00 0.00 1.00 
2570623.75 1096259.12 2171.50 26985 26728 31868 27242.00 1.00 1.00 1.00 0.00 20.00 0.00 0.00 1.00 
2570624.00 1096259.62 2171.35 26471 26471 31868 26985.00 1.00 1.00 1.00 0.00 20.00 0.00 0.00 1.00 
2570622.00 1096257.75 2171.40 25957 26471 32896 26985.00 1.00 1.00 1.00 0.00 4.00 0.00 0.00 1.00 
2570622.25 1096258.12 2171.40 29555 29812 36494 30326.00 1.00 1.00 1.00 0.00 20.00 0.00 0.00 1.00 
2570622.50 1096258.50 2171.65 31611 31868 38807 32382.00 1.00 1.00 1.00 0.00 20.00 0.00 0.00 1.00 
2570623.00 1096258.88 2171.70 37008 37779 43947 38036.00 1.00 1.00 1.00 0.00 20.00 0.00 0.00 1.00 
2570623.25 1096259.38 2171.60 38807 39578 45489 39835.00 1.00 1.00 1.00 0.00 20.00 0.00 0.00 1.00 
2570623.50 1096259.75 2171.50 37779 38036 44204 38550.00 1.00 1.00 1.00 0.00 4.00 0.00 0.00 1.00 
2570622.25 1096258.88 2171.20 29041 29812 37008 30326.00 1.00 1.00 1.00 0.00 4.00 0.00 0.00 1.00 
2570624.25 1096257.00 2171.40 34695 34695 40092 35209.00 1.00 1.00 1.00 0.00 4.00 0.00 0.00 1.00 
2570624.75 1096258.75 2171.55 27499 24415 26728 25443.00 1.00 1.00 1.00 0.00 4.00 0.00 0.00 1.00 
2570624.00 1096257.38 2171.55 44461 44204 48830 44718.00 1.00 1.00 1.00 0.00 4.00 0.00 0.00 1.00 
2570623.75 1096257.00 2171.80 48059 48059 51914 48316.00 1.00 1.00 1.00 0.00 20.00 0.00 0.00 1.00 
2570624.75 1096259.62 2171.20 36237 34952 38807 35723.00 1.00 1.00 1.00 0.00 4.00 0.00 0.00 1.00 
2570624.50 1096259.12 2171.25 28784 28270 32639 28784.00 1.00 1.00 1.00 0.00 4.00 0.00 0.00 1.00 
2570624.25 1096258.75 2171.45 25957 24929 29555 25700.00 1.00 1.00 1.00 0.00 4.00 0.00 0.00 1.00 
2570624.00 1096259.38 2171.30 29298 29298 34438 29812.00 1.00 1.00 1.00 0.00 4.00 0.00 0.00 1.00 
2570623.75 1096259.00 2171.50 31354 31868 36751 32125.00 1.00 1.00 1.00 0.00 4.00 0.00 0.00 1.00 
2570623.50 1096258.62 2171.70 37522 38293 44718 38550.00 1.00 1.00 1.00 0.00 4.00 0.00 0.00 1.00 
2570623.25 1096258.25 2171.85 39321 39835 46003 40349.00 1.00 1.00 1.00 0.00 20.00 0.00 0.00 1.00 
2570623.00 1096257.75 2171.90 37008 37008 42405 37522.00 1.00 1.00 1.00 0.00 20.00 0.00 0.00 1.00 
2570623.50 1096259.75 2171.40 36237 37008 42919 37265.00 1.00 1.00 1.00 0.00 4.00 0.00 0.00 1.00 
2570623.25 1096259.38 2171.55 38807 39321 45232 39578.00 1.00 1.00 1.00 0.00 4.00 0.00 0.00 1.00 
2570623.00 1096258.88 2171.65 37008 37779 43947 38036.00 1.00 1.00 1.00 0.00 20.00 0.00 0.00 1.00 
2570622.75 1096258.50 2171.80 31611 31868 38036 32382.00 1.00 1.00 1.00 0.00 4.00 0.00 0.00 1.00 
2570622.25 1096258.00 2171.50 29041 29555 35980 30069.00 1.00 1.00 1.00 0.00 4.00 0.00 0.00 1.00 
2570624.50 1096257.12 2171.45 31868 31611 37008 32125.00 1.00 1.00 1.00 0.00 4.00 0.00 0.00 1.00 
2570625.00 1096258.00 2171.75 30840 27499 31097 28784.00 1.00 1.00 1.00 0.00 4.00 0.00 0.00 1.00 
2570624.50 1096257.75 2171.60 31354 28527 31868 29555.00 1.00 1.00 1.00 0.00 4.00 0.00 0.00 1.00 
2570623.75 1096257.38 2171.75 44461 43947 48316 44461.00 1.00 1.00 1.00 0.00 20.00 0.00 0.00 1.00 
2570623.75 1096258.62 2171.75 31611 31354 37265 31868.00 1.00 1.00 1.00 0.00 4.00 0.00 0.00 1.00 
2570623.00 1096258.25 2171.90 38036 38807 44718 39064.00 1.00 1.00 1.00 0.00 4.00 0.00 0.00 1.00 
2570622.75 1096258.00 2171.75 29812 29812 36237 30326.00 1.00 1.00 1.00 0.00 20.00 0.00 0.00 1.00 
2570622.25 1096257.75 2171.50 27242 27242 33924 27756.00 1.00 1.00 1.00 0.00 4.00 0.00 0.00 1.00 
2570624.25 1096259.62 2171.40 25957 25700 31097 26214.00 1.00 1.00 1.00 0.00 4.00 0.00 0.00 1.00 
2570623.50 1096259.12 2171.65 35980 36237 41634 36751.00 1.00 1.00 1.00 0.00 4.00 0.00 0.00 1.00 
2570622.75 1096258.88 2171.80 36494 37522 43433 37779.00 1.00 1.00 1.00 0.00 20.00 0.00 0.00 1.00 
2570622.50 1096258.62 2171.50 28784 29555 35980 29812.00 1.00 1.00 1.00 0.00 4.00 0.00 0.00 1.00 
2570623.25 1096259.62 2171.60 39321 39835 46003 40349.00 1.00 1.00 1.00 0.00 4.00 0.00 0.00 1.00 
2570622.75 1096259.38 2171.60 37008 38036 44204 38293.00 1.00 1.00 1.00 0.00 4.00 0.00 0.00 1.00 
2570622.25 1096259.12 2171.45 29555 30583 37008 30840.00 1.00 1.00 1.00 0.00 4.00 0.00 0.00 1.00 
2570624.50 1096257.00 2171.45 33410 33153 38807 33667.00 1.00 1.00 1.00 0.00 20.00 0.00 0.00 1.00 
2570622.75 1096257.75 2171.80 32125 32125 38036 32639.00 1.00 1.00 1.00 0.00 4.00 0.00 0.00 1.00 
2570623.50 1096258.25 2171.90 37779 37779 44461 38293.00 1.00 1.00 1.00 0.00 4.00 0.00 0.00 1.00 
2570624.75 1096258.88 2171.30 27242 25443 29298 26214.00 1.00 1.00 1.00 0.00 4.00 0.00 0.00 1.00 
2570622.50 1096258.50 2171.50 28527 29041 36237 29555.00 1.00 1.00 1.00 0.00 4.00 0.00 0.00 1.00 
2570622.75 1096258.75 2171.80 35980 36494 42662 37008.00 1.00 1.00 1.00 0.00 20.00 0.00 0.00 1.00 
2570623.25 1096259.00 2171.70 34695 34952 40606 35466.00 1.00 1.00 1.00 0.00 4.00 0.00 0.00 1.00 
2570624.00 1096259.25 2171.45 29041 29041 33924 29555.00 1.00 1.00 1.00 0.00 20.00 0.00 0.00 1.00 
2570624.50 1096259.50 2171.40 31354 31354 35466 31611.00 1.00 1.00 1.00 0.00 4.00 0.00 0.00 1.00 
2570622.25 1096258.88 2171.40 29041 29812 37008 30326.00 1.00 1.00 1.00 0.00 4.00 0.00 0.00 1.00 
2570623.00 1096259.38 2171.55 38036 38807 44975 39064.00 1.00 1.00 1.00 0.00 20.00 0.00 0.00 1.00 
2570623.75 1096259.75 2171.35 37008 37265 42919 37779.00 1.00 1.00 1.00 0.00 4.00 0.00 0.00 1.00 
2570625.00 1096257.88 2171.25 28784 27242 31354 28013.00 1.00 1.00 1.00 0.00 4.00 0.00 0.00 1.00 
2570624.50 1096257.62 2171.35 36751 35980 42148 36751.00 1.00 1.00 1.00 0.00 4.00 0.00 0.00 1.00 
2570624.00 1096257.38 2171.60 46003 45489 49858 46003.00 1.00 1.00 1.00 0.00 20.00 0.00 0.00 1.00 
2570624.50 1096259.12 2171.35 25443 24929 28270 25443.00 1.00 1.00 1.00 0.00 4.00 0.00 0.00 1.00 
2570623.25 1096258.38 2171.90 36494 36751 43433 37265.00 1.00 1.00 1.00 0.00 20.00 0.00 0.00 1.00 
2570622.75 1096258.25 2171.80 30583 31097 37522 31611.00 1.00 1.00 1.00 0.00 4.00 0.00 0.00 1.00 
2570622.25 1096258.00 2171.55 29555 29812 36751 30326.00 1.00 1.00 1.00 0.00 20.00 0.00 0.00 1.00 
2570624.00 1096259.50 2171.45 27499 27242 32639 27756.00 1.00 1.00 1.00 0.00 20.00 0.00 0.00 1.00 
2570623.75 1096259.25 2171.60 34695 35209 40606 35466.00 1.00 1.00 1.00 0.00 4.00 0.00 0.00 1.00 
2570623.25 1096259.00 2171.80 37522 37779 43947 38293.00 1.00 1.00 1.00 0.00 20.00 0.00 0.00 1.00 
2570622.75 1096258.75 2171.85 35723 36751 42919 37008.00 1.00 1.00 1.00 0.00 4.00 0.00 0.00 1.00 
2570622.25 1096258.62 2171.35 28013 28784 35723 29298.00 1.00 1.00 1.00 0.00 20.00 0.00 0.00 1.00 
2570623.75 1096259.75 2171.40 34181 34181 40092 34695.00 1.00 1.00 1.00 0.00 20.00 0.00 0.00 1.00 
2570623.25 1096259.50 2171.60 39835 40092 46260 40606.00 1.00 1.00 1.00 0.00 20.00 0.00 0.00 1.00 
2570623.00 1096259.25 2171.60 38550 39321 45232 39578.00 1.00 1.00 1.00 0.00 4.00 0.00 0.00 1.00 
2570622.50 1096259.00 2171.50 31097 31611 38293 32125.00 1.00 1.00 1.00 0.00 20.00 0.00 0.00 1.00 
2570622.50 1096259.00 2171.40 30840 31611 38293 31868.00 1.00 1.00 1.00 0.00 20.00 0.00 0.00 1.00 
2570623.00 1096259.12 2171.50 37522 38293 44718 38550.00 1.00 1.00 1.00 0.00 4.00 0.00 0.00 1.00 
2570623.50 1096259.50 2171.45 37779 38036 44204 38550.00 1.00 1.00 1.00 0.00 4.00 0.00 0.00 1.00 
2570622.75 1096258.50 2171.65 31611 31868 38293 32382.00 1.00 1.00 1.00 0.00 4.00 0.00 0.00 1.00 
2570623.25 1096258.75 2171.70 37265 38036 44461 38293.00 1.00 1.00 1.00 0.00 4.00 0.00 0.00 1.00 
2570623.75 1096259.62 2171.30 33667 33667 39835 34181.00 1.00 1.00 1.00 0.00 4.00 0.00 0.00 1.00 
2570622.50 1096257.62 2171.40 30326 30326 36751 30840.00 1.00 1.00 1.00 0.00 4.00 0.00 0.00 1.00 
2570623.75 1096259.00 2171.50 31354 31868 36751 32125.00 1.00 1.00 1.00 0.00 20.00 0.00 0.00 1.00 
2570624.00 1096259.12 2171.40 27756 27499 32125 28013.00 1.00 1.00 1.00 0.00 4.00 0.00 0.00 1.00 
2570624.50 1096259.38 2171.30 33410 33153 37265 33667.00 1.00 1.00 1.00 0.00 20.00 0.00 0.00 1.00 
2570623.00 1096258.00 2171.75 36494 37008 42662 37265.00 1.00 1.00 1.00 0.00 4.00 0.00 0.00 1.00 
2570623.50 1096258.25 2171.85 35980 35980 42919 36494.00 1.00 1.00 1.00 0.00 4.00 0.00 0.00 1.00 
2570624.25 1096258.62 2171.55 29812 26471 29555 27756.00 1.00 1.00 1.00 0.00 4.00 0.00 0.00 1.00 
2570624.50 1096258.88 2171.30 23901 22873 27242 23644.00 1.00 1.00 1.00 0.00 20.00 0.00 0.00 1.00 
2570624.75 1096258.50 2171.50 30069 25443 27499 26985.00 1.00 1.00 1.00 0.00 4.00 0.00 0.00 1.00 
2570624.25 1096257.00 2171.55 44461 43690 48316 44204.00 1.00 1.00 1.00 0.00 4.00 0.00 0.00 1.00 
2570625.25 1096258.12 2172.19 28270 24929 28784 26214.00 1.00 1.00 1.00 0.00 4.00 0.00 0.00 1.00 
2570625.00 1096258.12 2172.09 32382 27242 28784 28784.00 1.00 1.00 1.00 0.00 4.00 0.00 0.00 1.00 
2570625.25 1096258.50 2172.49 31611 26985 28784 28527.00 1.00 1.00 1.00 0.00 4.00 0.00 0.00 1.00 
2570623.75 1096257.25 2172.04 45746 44975 48573 45489.00 1.00 1.00 1.00 0.00 4.00 0.00 0.00 1.00 
2570624.00 1096257.75 2171.99 39064 38036 43433 38807.00 1.00 1.00 1.00 0.00 4.00 0.00 0.00 1.00 
2570624.25 1096258.00 2172.69 32639 28013 30326 29555.00 1.00 1.00 1.00 0.00 4.00 0.00 0.00 1.00 
2570624.25 1096258.12 2173.57 38807 30840 30583 33153.00 1.00 1.00 1.00 0.00 5.00 0.00 0.00 1.00 
2570624.00 1096258.50 2172.88 29555 25700 27756 26985.00 1.00 1.00 1.00 0.00 4.00 0.00 0.00 1.00 
2570623.00 1096258.00 2172.04 36494 36494 42405 37008.00 1.00 1.00 1.00 0.00 4.00 0.00 0.00 1.00 
2570623.75 1096258.75 2172.69 35209 34438 39835 35209.00 1.00 1.00 1.00 0.00 4.00 0.00 0.00 1.00 
2570625.25 1096258.25 2172.34 24929 22616 26214 23644.00 1.00 1.00 1.00 0.00 4.00 0.00 0.00 1.00 
2570624.75 1096258.62 2172.04 31611 26985 28784 28527.00 1.00 1.00 1.00 0.00 4.00 0.00 0.00 1.00 
2570624.25 1096258.00 2173.23 34695 28527 29041 30326.00 1.00 1.00 1.00 0.00 5.00 0.00 0.00 1.00 
2570624.25 1096257.75 2172.29 33410 31097 35209 32125.00 1.00 1.00 1.00 0.00 4.00 0.00 0.00 1.00 
2570624.25 1096258.75 2172.54 28013 25186 27756 26214.00 1.00 1.00 1.00 0.00 4.00 0.00 0.00 1.00 
2570623.75 1096258.25 2173.03 32639 28270 30069 29555.00 1.00 1.00 1.00 0.00 5.00 0.00 0.00 1.00 
2570623.75 1096257.88 2172.24 39321 38550 44718 39321.00 1.00 1.00 1.00 0.00 4.00 0.00 0.00 1.00 
2570623.25 1096257.50 2171.99 41377 40606 45232 41120.00 1.00 1.00 1.00 0.00 4.00 0.00 0.00 1.00 
2570623.00 1096257.88 2171.95 36751 36494 42148 37008.00 1.00 1.00 1.00 0.00 4.00 0.00 0.00 1.00 
2570622.75 1096257.50 2171.95 37265 37522 43690 38036.00 1.00 1.00 1.00 0.00 20.00 0.00 0.00 1.00 
2570625.50 1096258.38 2172.14 23901 21845 25957 22873.00 1.00 1.00 1.00 0.00 4.00 0.00 0.00 1.00 
2570624.50 1096257.75 2173.03 41377 35980 37008 37522.00 1.00 1.00 1.00 0.00 5.00 0.00 0.00 1.00 
2570624.75 1096258.25 2172.49 36237 29555 30069 31611.00 1.00 1.00 1.00 0.00 4.00 0.00 0.00 1.00 
2570625.00 1096258.62 2171.99 29812 25700 27242 26985.00 1.00 1.00 1.00 0.00 20.00 0.00 0.00 1.00 
2570623.50 1096257.00 2171.99 44204 44204 48316 44461.00 1.00 1.00 1.00 0.00 4.00 0.00 0.00 1.00 
2570624.00 1096257.88 2173.43 37008 30583 31097 32382.00 1.00 1.00 1.00 0.00 5.00 0.00 0.00 1.00 
2570624.25 1096258.25 2172.98 34181 28013 29298 29812.00 1.00 1.00 1.00 0.00 5.00 0.00 0.00 1.00 
2570623.25 1096257.50 2172.04 41377 41120 46003 41634.00 1.00 1.00 1.00 0.00 4.00 0.00 0.00 1.00 
2570622.75 1096257.50 2171.95 36237 36494 42662 37008.00 1.00 1.00 1.00 0.00 4.00 0.00 0.00 1.00 
2570625.00 1096258.12 2172.09 32382 27242 28784 28784.00 1.00 1.00 1.00 0.00 20.00 0.00 0.00 1.00 
2570624.50 1096257.50 2172.54 25700 23130 26985 24158.00 1.00 1.00 1.00 0.00 4.00 0.00 0.00 1.00 
2570624.50 1096258.38 2171.94 33667 28013 29041 29812.00 1.00 1.00 1.00 0.00 4.00 0.00 0.00 1.00 
2570624.50 1096258.00 2172.44 31611 27242 28784 28527.00 1.00 1.00 1.00 0.00 4.00 0.00 0.00 1.00 
2570624.25 1096257.75 2172.88 40092 35466 36751 36751.00 1.00 1.00 1.00 0.00 4.00 0.00 0.00 1.00 
2570624.25 1096258.62 2172.44 29298 25957 27756 26985.00 1.00 1.00 1.00 0.00 4.00 0.00 0.00 1.00 
2570624.00 1096258.25 2172.69 31097 27242 29812 28527.00 1.00 1.00 1.00 0.00 4.00 0.00 0.00 1.00 
2570623.75 1096258.00 2173.08 31611 27242 29041 28527.00 1.00 1.00 1.00 0.00 5.00 0.00 0.00 1.00 
2570623.50 1096258.50 2172.78 36494 36751 42662 37265.00 1.00 1.00 1.00 0.00 4.00 0.00 0.00 1.00 
2570625.25 1096258.12 2172.29 26214 23387 27242 24415.00 1.00 1.00 1.00 0.00 4.00 0.00 0.00 1.00 
2570624.75 1096258.50 2172.88 37008 30840 31868 32639.00 1.00 1.00 1.00 0.00 5.00 0.00 0.00 1.00 
2570624.00 1096258.12 2173.23 36494 29555 29812 31611.00 1.00 1.00 1.00 0.00 5.00 0.00 0.00 1.00 
2570623.75 1096258.00 2172.54 31354 28784 32382 29812.00 1.00 1.00 1.00 0.00 4.00 0.00 0.00 1.00 
2570623.50 1096257.88 2171.95 43176 42919 49087 43433.00 1.00 1.00 1.00 0.00 4.00 0.00 0.00 1.00 
2570623.00 1096257.50 2171.99 37265 37265 42405 37779.00 1.00 1.00 1.00 0.00 4.00 0.00 0.00 1.00 
2570624.50 1096258.88 2172.78 25443 23130 26471 24158.00 1.00 1.00 1.00 0.00 4.00 0.00 0.00 1.00 
2570624.00 1096258.62 2172.59 26985 25186 28527 25957.00 1.00 1.00 1.00 0.00 4.00 0.00 0.00 1.00 
2570623.50 1096257.50 2171.99 44461 44461 49344 44975.00 1.00 1.00 1.00 0.00 20.00 0.00 0.00 1.00 
2570624.00 1096257.75 2172.09 40606 39321 44718 40092.00 1.00 1.00 1.00 0.00 4.00 0.00 0.00 1.00 
2570624.00 1096257.75 2173.43 39321 34695 36494 36237.00 1.00 1.00 1.00 0.00 21.00 0.00 0.00 1.00 
2570624.75 1096258.25 2172.29 38293 30583 30840 32896.00 1.00 1.00 1.00 0.00 4.00 0.00 0.00 1.00 
2570625.25 1096258.50 2172.34 24929 22616 25957 23644.00 1.00 1.00 1.00 0.00 4.00 0.00 0.00 1.00 
2570623.00 1096258.00 2171.99 36751 36751 42405 37265.00 1.00 1.00 1.00 0.00 20.00 0.00 0.00 1.00 
2570624.00 1096258.50 2172.69 29555 26214 29041 27499.00 1.00 1.00 1.00 0.00 4.00 0.00 0.00 1.00 
2570625.00 1096258.25 2172.04 32382 27242 28784 28784.00 1.00 1.00 1.00 0.00 20.00 0.00 0.00 1.00 
2570624.50 1096258.00 2173.03 40606 31611 31354 34181.00 1.00 1.00 1.00 0.00 5.00 0.00 0.00 1.00 
2570624.00 1096257.75 2172.04 38293 37265 42662 38036.00 1.00 1.00 1.00 0.00 20.00 0.00 0.00 1.00 
2570623.50 1096257.50 2171.95 43947 43433 48059 43947.00 1.00 1.00 1.00 0.00 20.00 0.00 0.00 1.00 
2570624.25 1096258.88 2172.59 26214 23901 27242 24929.00 1.00 1.00 1.00 0.00 4.00 0.00 0.00 1.00 
2570623.75 1096258.75 2172.64 31097 30069 34952 30840.00 1.00 1.00 1.00 0.00 20.00 0.00 0.00 1.00 
2570625.00 1096258.75 2171.99 26985 23901 26728 24929.00 1.00 1.00 1.00 0.00 4.00 0.00 0.00 1.00 
2570624.50 1096258.62 2172.49 32382 27499 29555 29041.00 1.00 1.00 1.00 0.00 4.00 0.00 0.00 1.00 
2570624.00 1096258.38 2173.08 32639 27242 28270 28784.00 1.00 1.00 1.00 0.00 5.00 0.00 0.00 1.00 
2570623.50 1096258.12 2172.39 36237 35209 40606 35980.00 1.00 1.00 1.00 0.00 4.00 0.00 0.00 1.00 
2570623.00 1096257.88 2172.04 37779 37779 43176 38293.00 1.00 1.00 1.00 0.00 20.00 0.00 0.00 1.00 
2570622.75 1096257.62 2171.95 35209 35466 41634 35980.00 1.00 1.00 1.00 0.00 20.00 0.00 0.00 1.00 
2570624.25 1096258.62 2172.64 31611 27499 30069 28784.00 1.00 1.00 1.00 0.00 4.00 0.00 0.00 1.00 
2570623.25 1096257.62 2171.99 40092 40349 45746 40863.00 1.00 1.00 1.00 0.00 20.00 0.00 0.00 1.00 
2570624.00 1096258.00 2173.08 33410 28270 29298 29812.00 1.00 1.00 1.00 0.00 5.00 0.00 0.00 1.00 
2570624.25 1096258.25 2172.64 31611 27242 28784 28527.00 1.00 1.00 1.00 0.00 4.00 0.00 0.00 1.00 
2570624.50 1096258.38 2171.99 34438 28527 29555 30326.00 1.00 1.00 1.00 0.00 20.00 0.00 0.00 1.00 
2570623.25 1096257.12 2171.99 43176 42919 47031 43433.00 1.00 1.00 1.00 0.00 20.00 0.00 0.00 1.00 
2570624.25 1096257.62 2173.43 38807 34438 35980 35723.00 1.00 1.00 1.00 0.00 5.00 0.00 0.00 1.00 
2570623.75 1096257.38 2171.95 44718 44204 48830 44718.00 1.00 1.00 1.00 0.00 4.00 0.00 0.00 1.00 
2570624.50 1096257.75 2172.59 37522 32896 35209 34438.00 1.00 1.00 1.00 0.00 4.00 0.00 0.00 1.00 
2570624.75 1096257.88 2172.14 34952 29041 30583 30840.00 1.00 1.00 1.00 0.00 4.00 0.00 0.00 1.00 
2570625.25 1096258.12 2172.09 32125 28270 31354 29555.00 1.00 1.00 1.00 0.00 4.00 0.00 0.00 1.00 
2570624.50 1096257.25 2172.64 24415 22873 26728 23644.00 1.00 1.00 1.00 0.00 4.00 0.00 0.00 1.00 
