VERSION 0.7
FIELDS x y z red green blue intensity returnnumber numberofreturns scandirectionflag edgeofflightline classification scananglerank userdata pointsourceid
SIZE 4 4 4 2 2 2 8 8 8 8 8 8 8 8 8
TYPE F F F U U U F F F F F F F F F
COUNT 1 1 1 1 1 1 1 1 1 1 1 1 1 1 1
WIDTH 486
HEIGHT 1
VIEWPOINT 0.0 0.0 0.0 1.0 0.0 0.0 0.0
POINTS 486
DATA ascii
2571279.00 1096261.75 2262.50 18504 19018 25443 19532.00 1.00 1.00 1.00 0.00 4.00 0.00 0.00 1.00 
2571278.50 1096262.12 2262.15 18504 18247 24672 19018.00 1.00 1.00 1.00 0.00 4.00 0.00 0.00 1.00 
2571278.00 1096254.75 2268.22 21331 20046 25700 20817.00 1.00 1.00 1.00 0.00 5.00 0.00 0.00 1.00 
2571278.25 1096255.00 2268.67 14906 15420 21074 15677.00 1.00 1.00 1.00 0.00 21.00 0.00 0.00 1.00 
2571278.75 1096255.12 2268.82 10023 12336 19789 12336.00 1.00 1.00 1.00 0.00 5.00 0.00 0.00 1.00 
2571278.00 1096255.50 2267.04 14906 16448 23130 16705.00 1.00 1.00 1.00 0.00 5.00 0.00 0.00 1.00 
2571279.00 1096256.12 2268.27 10023 12079 19275 12079.00 1.00 1.00 1.00 0.00 21.00 0.00 0.00 1.00 
2571276.75 1096255.62 2264.03 17476 17476 23387 17990.00 1.00 1.00 1.00 0.00 4.00 0.00 0.00 1.00 
2571276.75 1096255.62 2265.21 22873 21074 26471 22102.00 1.00 1.00 1.00 0.00 5.00 0.00 0.00 1.00 
2571277.00 1096255.75 2265.85 22873 20817 24929 21845.00 1.00 1.00 1.00 0.00 5.00 0.00 0.00 1.00 
2571277.50 1096256.12 2264.47 18761 17476 22616 18247.00 1.00 1.00 1.00 0.00 4.00 0.00 0.00 1.00 
2571277.25 1096255.88 2266.59 21588 20303 24415 21074.00 1.00 1.00 1.00 0.00 5.00 0.00 0.00 1.00 
2571277.75 1096256.88 2265.66 20560 20303 24672 20817.00 1.00 1.00 1.00 0.00 5.00 0.00 0.00 1.00 
2571278.00 1096257.00 2266.25 19789 19275 24929 20046.00 1.00 1.00 1.00 0.00 5.00 0.00 0.00 1.00 
2571278.50 1096257.25 2264.97 15677 16962 24158 17219.00 1.00 1.00 1.00 0.00 4.00 0.00 0.00 1.00 
2571276.50 1096256.12 2263.49 18247 17219 23130 17990.00 1.00 1.00 1.00 0.00 4.00 0.00 0.00 1.00 
2571276.25 1096256.12 2264.92 22102 20560 24415 21331.00 1.00 1.00 1.00 0.00 21.00 0.00 0.00 1.00 
2571276.50 1096256.25 2265.76 25957 23644 26728 24672.00 1.00 1.00 1.00 0.00 21.00 0.00 0.00 1.00 
2571276.75 1096256.38 2266.50 24929 22616 25700 23644.00 1.00 1.00 1.00 0.00 5.00 0.00 0.00 1.00 
2571277.00 1096256.50 2266.99 24672 22359 24929 23130.00 1.00 1.00 1.00 0.00 5.00 0.00 0.00 1.00 
2571276.25 1096256.50 2264.57 16191 16191 22616 16705.00 1.00 1.00 1.00 0.00 5.00 0.00 0.00 1.00 
2571276.50 1096256.75 2264.92 29298 26471 28784 27499.00 1.00 1.00 1.00 0.00 5.00 0.00 0.00 1.00 
2571277.00 1096257.00 2264.92 24672 22102 23644 22873.00 1.00 1.00 1.00 0.00 5.00 0.00 0.00 1.00 
2571277.50 1096257.25 2265.21 19532 18504 22873 19275.00 1.00 1.00 1.00 0.00 21.00 0.00 0.00 1.00 
2571277.75 1096257.38 2265.76 20817 20303 25957 21074.00 1.00 1.00 1.00 0.00 5.00 0.00 0.00 1.00 
2571278.50 1096257.75 2264.62 16448 17219 24415 17733.00 1.00 1.00 1.00 0.00 4.00 0.00 0.00 1.00 
2571278.75 1096257.88 2264.92 13878 15677 23130 15934.00 1.00 1.00 1.00 0.00 4.00 0.00 0.00 1.00 
2571277.00 1096257.75 2262.74 17733 18247 24158 18504.00 1.00 1.00 1.00 0.00 4.00 0.00 0.00 1.00 
2571277.50 1096258.00 2263.09 16191 16962 23644 17219.00 1.00 1.00 1.00 0.00 4.00 0.00 0.00 1.00 
2571278.75 1096258.75 2264.92 13364 15163 22616 15420.00 1.00 1.00 1.00 0.00 4.00 0.00 0.00 1.00 
2571278.00 1096258.88 2263.34 13878 14906 21845 15163.00 1.00 1.00 1.00 0.00 4.00 0.00 0.00 1.00 
2571278.25 1096259.00 2263.88 12850 14649 21845 14649.00 1.00 1.00 1.00 0.00 4.00 0.00 0.00 1.00 
2571278.75 1096259.25 2264.03 10280 12079 19275 12079.00 1.00 1.00 1.00 0.00 20.00 0.00 0.00 1.00 
2571279.00 1096259.38 2266.00 8738 10794 17990 10794.00 1.00 1.00 1.00 0.00 5.00 0.00 0.00 1.00 
2571277.75 1096259.50 2263.83 15934 17476 24672 17733.00 1.00 1.00 1.00 0.00 4.00 0.00 0.00 1.00 
2571278.25 1096259.62 2264.03 12593 14392 21588 14392.00 1.00 1.00 1.00 0.00 4.00 0.00 0.00 1.00 
2571278.75 1096259.88 2264.32 11051 13364 20560 13364.00 1.00 1.00 1.00 0.00 4.00 0.00 0.00 1.00 
2571277.75 1096259.88 2261.71 20303 21845 28784 22102.00 1.00 1.00 1.00 0.00 20.00 0.00 0.00 1.00 
2571277.75 1096260.12 2262.40 19532 21074 27756 21331.00 1.00 1.00 1.00 0.00 4.00 0.00 0.00 1.00 
2571277.75 1096260.00 2263.73 19789 21074 28270 21331.00 1.00 1.00 1.00 0.00 5.00 0.00 0.00 1.00 
2571278.25 1096260.25 2262.69 24672 26214 33153 26471.00 1.00 1.00 1.00 0.00 4.00 0.00 0.00 1.00 
2571278.25 1096260.25 2263.93 13107 14649 21845 14906.00 1.00 1.00 1.00 0.00 5.00 0.00 0.00 1.00 
2571278.75 1096260.50 2262.79 16705 18504 25700 18504.00 1.00 1.00 1.00 0.00 4.00 0.00 0.00 1.00 
2571278.50 1096260.38 2264.77 11822 13878 21331 13878.00 1.00 1.00 1.00 0.00 5.00 0.00 0.00 1.00 
2571278.50 1096261.88 2261.56 15163 15934 22102 16191.00 1.00 1.00 1.00 0.00 4.00 0.00 0.00 1.00 
2571278.75 1096262.00 2262.15 20303 20303 26728 20817.00 1.00 1.00 1.00 0.00 4.00 0.00 0.00 1.00 
2571278.00 1096262.25 2261.71 13364 14392 20817 14649.00 1.00 1.00 1.00 0.00 5.00 0.00 0.00 1.00 
2571279.00 1096262.25 2262.45 20817 20560 26985 21331.00 1.00 1.00 1.00 0.00 4.00 0.00 0.00 1.00 
2571278.75 1096261.62 2261.66 19789 20046 26728 20560.00 1.00 1.00 1.00 0.00 4.00 0.00 0.00 1.00 
2571278.25 1096261.00 2264.77 17219 18761 25443 19018.00 1.00 1.00 1.00 0.00 5.00 0.00 0.00 1.00 
2571278.00 1096260.75 2264.32 15163 16705 23901 16962.00 1.00 1.00 1.00 0.00 5.00 0.00 0.00 1.00 
2571279.00 1096260.75 2264.57 17733 19018 26214 19275.00 1.00 1.00 1.00 0.00 5.00 0.00 0.00 1.00 
2571278.50 1096260.50 2264.67 12336 14392 21588 14392.00 1.00 1.00 1.00 0.00 5.00 0.00 0.00 1.00 
2571278.25 1096260.38 2263.98 16962 18247 25700 18504.00 1.00 1.00 1.00 0.00 5.00 0.00 0.00 1.00 
2571278.50 1096260.62 2262.69 23644 24929 31611 25186.00 1.00 1.00 1.00 0.00 4.00 0.00 0.00 1.00 
2571277.75 1096260.12 2263.78 19018 20303 27499 20560.00 1.00 1.00 1.00 0.00 5.00 0.00 0.00 1.00 
2571278.00 1096260.38 2262.55 17476 19018 26214 19275.00 1.00 1.00 1.00 0.00 4.00 0.00 0.00 1.00 
2571277.75 1096260.12 2262.10 20303 21588 28527 21845.00 1.00 1.00 1.00 0.00 4.00 0.00 0.00 1.00 
2571278.75 1096260.25 2264.23 12593 14649 21845 14649.00 1.00 1.00 1.00 0.00 5.00 0.00 0.00 1.00 
2571278.25 1096260.00 2263.98 13107 14906 22359 15163.00 1.00 1.00 1.00 0.00 20.00 0.00 0.00 1.00 
2571278.00 1096259.88 2263.83 15677 16962 24158 17219.00 1.00 1.00 1.00 0.00 5.00 0.00 0.00 1.00 
2571277.75 1096259.75 2262.30 18504 19789 26985 20046.00 1.00 1.00 1.00 0.00 4.00 0.00 0.00 1.00 
2571279.00 1096260.00 2266.54 10280 12593 20046 12593.00 1.00 1.00 1.00 0.00 5.00 0.00 0.00 1.00 
2571278.75 1096259.88 2263.93 11565 12850 20303 13107.00 1.00 1.00 1.00 0.00 4.00 0.00 0.00 1.00 
2571278.25 1096259.62 2263.78 10794 12593 19789 12593.00 1.00 1.00 1.00 0.00 4.00 0.00 0.00 1.00 
2571277.75 1096259.38 2263.93 15163 16705 24158 16962.00 1.00 1.00 1.00 0.00 20.00 0.00 0.00 1.00 
2571279.00 1096259.62 2266.40 8995 11051 18504 11051.00 1.00 1.00 1.00 0.00 5.00 0.00 0.00 1.00 
2571278.75 1096259.50 2263.93 11051 12850 20303 13107.00 1.00 1.00 1.00 0.00 4.00 0.00 0.00 1.00 
2571278.25 1096259.25 2263.73 12593 14135 21588 14392.00 1.00 1.00 1.00 0.00 4.00 0.00 0.00 1.00 
2571278.00 1096259.12 2263.04 12336 13107 20303 13621.00 1.00 1.00 1.00 0.00 4.00 0.00 0.00 1.00 
2571279.00 1096259.12 2266.64 12593 14649 22359 14649.00 1.00 1.00 1.00 0.00 5.00 0.00 0.00 1.00 
2571279.00 1096259.00 2265.06 10537 12336 20046 12593.00 1.00 1.00 1.00 0.00 4.00 0.00 0.00 1.00 
2571278.25 1096258.75 2263.83 13107 14649 21588 14906.00 1.00 1.00 1.00 0.00 20.00 0.00 0.00 1.00 
2571278.00 1096258.50 2263.44 13107 14392 21331 14649.00 1.00 1.00 1.00 0.00 4.00 0.00 0.00 1.00 
2571277.25 1096258.00 2262.94 16962 17733 24415 17990.00 1.00 1.00 1.00 0.00 4.00 0.00 0.00 1.00 
2571277.00 1096257.88 2262.50 16962 17733 23387 17990.00 1.00 1.00 1.00 0.00 4.00 0.00 0.00 1.00 
2571278.25 1096258.12 2265.80 15677 16705 24158 16962.00 1.00 1.00 1.00 0.00 5.00 0.00 0.00 1.00 
2571277.75 1096257.88 2265.21 14649 15677 22873 15934.00 1.00 1.00 1.00 0.00 5.00 0.00 0.00 1.00 
2571277.50 1096257.62 2265.11 16962 17219 23387 17733.00 1.00 1.00 1.00 0.00 5.00 0.00 0.00 1.00 
2571277.00 1096257.50 2264.57 17733 17476 22873 17990.00 1.00 1.00 1.00 0.00 4.00 0.00 0.00 1.00 
2571277.25 1096257.62 2263.34 14392 14392 19789 14906.00 1.00 1.00 1.00 0.00 4.00 0.00 0.00 1.00 
2571276.75 1096257.25 2264.42 22359 21331 25443 21845.00 1.00 1.00 1.00 0.00 5.00 0.00 0.00 1.00 
2571276.75 1096257.38 2263.73 15934 16191 22102 16705.00 1.00 1.00 1.00 0.00 4.00 0.00 0.00 1.00 
2571276.25 1096257.00 2264.72 20817 20303 25957 21074.00 1.00 1.00 1.00 0.00 5.00 0.00 0.00 1.00 
2571279.00 1096258.00 2265.21 11308 12850 20046 13107.00 1.00 1.00 1.00 0.00 4.00 0.00 0.00 1.00 
2571278.25 1096257.62 2266.00 17476 17990 24929 18504.00 1.00 1.00 1.00 0.00 5.00 0.00 0.00 1.00 
2571278.50 1096257.88 2264.87 15163 16448 24158 16705.00 1.00 1.00 1.00 0.00 4.00 0.00 0.00 1.00 
2571278.00 1096257.50 2265.56 19018 19018 24929 19532.00 1.00 1.00 1.00 0.00 5.00 0.00 0.00 1.00 
2571277.50 1096257.12 2266.05 25957 23901 26471 24672.00 1.00 1.00 1.00 0.00 5.00 0.00 0.00 1.00 
2571276.75 1096256.88 2266.64 24672 21845 24415 22873.00 1.00 1.00 1.00 0.00 5.00 0.00 0.00 1.00 
2571276.50 1096256.75 2265.81 28784 25186 27756 26471.00 1.00 1.00 1.00 0.00 5.00 0.00 0.00 1.00 
2571276.25 1096256.62 2264.82 23387 21074 24672 22102.00 1.00 1.00 1.00 0.00 5.00 0.00 0.00 1.00 
2571279.00 1096257.62 2265.06 11308 13107 20560 13364.00 1.00 1.00 1.00 0.00 4.00 0.00 0.00 1.00 
2571278.25 1096257.25 2266.05 18504 18504 24929 19018.00 1.00 1.00 1.00 0.00 5.00 0.00 0.00 1.00 
2571278.50 1096257.50 2264.77 12079 13878 20560 13878.00 1.00 1.00 1.00 0.00 4.00 0.00 0.00 1.00 
2571278.00 1096257.00 2265.71 21588 20817 25700 21331.00 1.00 1.00 1.00 0.00 4.00 0.00 0.00 1.00 
2571277.25 1096256.62 2266.99 26214 24158 26728 24929.00 1.00 1.00 1.00 0.00 21.00 0.00 0.00 1.00 
2571276.75 1096256.38 2266.55 25700 23130 25700 24158.00 1.00 1.00 1.00 0.00 21.00 0.00 0.00 1.00 
2571276.50 1096256.25 2265.81 25700 23387 26728 24415.00 1.00 1.00 1.00 0.00 21.00 0.00 0.00 1.00 
2571276.25 1096256.12 2264.77 20046 18761 23387 19532.00 1.00 1.00 1.00 0.00 5.00 0.00 0.00 1.00 
2571276.75 1096256.38 2263.53 22873 21331 24929 22102.00 1.00 1.00 1.00 0.00 4.00 0.00 0.00 1.00 
2571277.50 1096256.12 2266.59 23130 22102 25957 22616.00 1.00 1.00 1.00 0.00 5.00 0.00 0.00 1.00 
2571277.00 1096256.00 2266.05 20560 18761 22873 19532.00 1.00 1.00 1.00 0.00 5.00 0.00 0.00 1.00 
2571276.75 1096255.88 2265.31 22359 20303 24158 21331.00 1.00 1.00 1.00 0.00 5.00 0.00 0.00 1.00 
2571276.50 1096255.62 2264.97 17733 17476 24158 18247.00 1.00 1.00 1.00 0.00 5.00 0.00 0.00 1.00 
2571277.75 1096255.88 2264.57 15934 16191 24158 16962.00 1.00 1.00 1.00 0.00 20.00 0.00 0.00 1.00 
2571279.00 1096256.00 2268.17 10537 12593 20046 12593.00 1.00 1.00 1.00 0.00 5.00 0.00 0.00 1.00 
2571278.50 1096255.75 2267.73 12593 13878 20817 14135.00 1.00 1.00 1.00 0.00 5.00 0.00 0.00 1.00 
2571278.25 1096255.62 2267.09 13621 15420 22873 15677.00 1.00 1.00 1.00 0.00 5.00 0.00 0.00 1.00 
2571277.50 1096255.25 2268.47 17733 17733 23644 18247.00 1.00 1.00 1.00 0.00 21.00 0.00 0.00 1.00 
2571277.75 1096255.38 2266.89 13107 14392 21074 14649.00 1.00 1.00 1.00 0.00 5.00 0.00 0.00 1.00 
2571278.75 1096255.50 2268.62 11565 13621 21331 13621.00 1.00 1.00 1.00 0.00 5.00 0.00 0.00 1.00 
2571278.25 1096255.25 2268.77 16962 17476 23644 17990.00 1.00 1.00 1.00 0.00 5.00 0.00 0.00 1.00 
2571278.00 1096255.00 2268.32 21074 20560 26214 21331.00 1.00 1.00 1.00 0.00 5.00 0.00 0.00 1.00 
2571278.25 1096255.25 2267.38 17990 18504 25186 19018.00 1.00 1.00 1.00 0.00 5.00 0.00 0.00 1.00 
2571277.50 1096254.75 2268.57 20046 19275 24415 20046.00 1.00 1.00 1.00 0.00 5.00 0.00 0.00 1.00 
2571279.00 1096255.12 2269.80 11308 14135 21845 13878.00 1.00 1.00 1.00 0.00 5.00 0.00 0.00 1.00 
2571278.50 1096254.75 2269.90 11308 13621 21074 13621.00 1.00 1.00 1.00 0.00 5.00 0.00 0.00 1.00 
2571278.25 1096254.75 2268.47 18504 18504 23644 19018.00 1.00 1.00 1.00 0.00 5.00 0.00 0.00 1.00 
2571278.50 1096255.00 2268.67 10280 12336 19018 12336.00 1.00 1.00 1.00 0.00 5.00 0.00 0.00 1.00 
2571279.00 1096255.12 2268.57 10280 12336 19789 12336.00 1.00 1.00 1.00 0.00 5.00 0.00 0.00 1.00 
2571278.00 1096255.38 2267.04 13364 14649 21331 14906.00 1.00 1.00 1.00 0.00 5.00 0.00 0.00 1.00 
2571278.25 1096255.62 2266.99 14649 15677 22873 15934.00 1.00 1.00 1.00 0.00 5.00 0.00 0.00 1.00 
2571278.75 1096255.75 2268.37 10794 12850 20046 12850.00 1.00 1.00 1.00 0.00 5.00 0.00 0.00 1.00 
2571276.75 1096255.50 2265.31 23387 22359 27499 23130.00 1.00 1.00 1.00 0.00 5.00 0.00 0.00 1.00 
2571277.25 1096255.75 2266.35 18761 17990 23644 18761.00 1.00 1.00 1.00 0.00 5.00 0.00 0.00 1.00 
2571277.75 1096255.88 2266.15 16962 16705 22359 17219.00 1.00 1.00 1.00 0.00 5.00 0.00 0.00 1.00 
2571277.50 1096255.88 2264.32 16705 16448 24672 17219.00 1.00 1.00 1.00 0.00 4.00 0.00 0.00 1.00 
2571278.00 1096256.12 2265.95 15934 16448 22873 16962.00 1.00 1.00 1.00 0.00 4.00 0.00 0.00 1.00 
2571276.00 1096255.88 2264.97 15677 16191 22359 16705.00 1.00 1.00 1.00 0.00 5.00 0.00 0.00 1.00 
2571276.50 1096256.12 2266.00 25957 23901 27242 24672.00 1.00 1.00 1.00 0.00 5.00 0.00 0.00 1.00 
2571277.00 1096256.25 2266.89 25186 22873 26214 23901.00 1.00 1.00 1.00 0.00 5.00 0.00 0.00 1.00 
2571277.25 1096256.50 2266.20 25186 22873 25957 23901.00 1.00 1.00 1.00 0.00 5.00 0.00 0.00 1.00 
2571277.75 1096256.62 2265.80 21845 21331 25700 21845.00 1.00 1.00 1.00 0.00 5.00 0.00 0.00 1.00 
2571277.50 1096256.62 2264.27 19532 19275 24158 19789.00 1.00 1.00 1.00 0.00 4.00 0.00 0.00 1.00 
2571278.00 1096256.88 2265.51 18761 18247 23644 18761.00 1.00 1.00 1.00 0.00 4.00 0.00 0.00 1.00 
2571278.00 1096256.88 2264.23 16962 18247 25186 18504.00 1.00 1.00 1.00 0.00 4.00 0.00 0.00 1.00 
2571278.50 1096257.00 2264.62 14906 15677 22616 16191.00 1.00 1.00 1.00 0.00 4.00 0.00 0.00 1.00 
2571278.75 1096257.12 2264.77 10794 12850 20046 12850.00 1.00 1.00 1.00 0.00 20.00 0.00 0.00 1.00 
2571276.00 1096256.50 2264.77 19018 18504 23901 19018.00 1.00 1.00 1.00 0.00 5.00 0.00 0.00 1.00 
2571276.50 1096256.62 2264.47 22616 20303 23901 21331.00 1.00 1.00 1.00 0.00 5.00 0.00 0.00 1.00 
2571277.00 1096256.88 2264.92 23901 21331 23644 22102.00 1.00 1.00 1.00 0.00 5.00 0.00 0.00 1.00 
2571277.25 1096257.00 2264.52 19789 19018 22873 19532.00 1.00 1.00 1.00 0.00 4.00 0.00 0.00 1.00 
2571277.75 1096257.25 2265.46 22873 21845 26728 22616.00 1.00 1.00 1.00 0.00 21.00 0.00 0.00 1.00 
2571278.25 1096257.50 2265.41 18504 18504 24929 19018.00 1.00 1.00 1.00 0.00 4.00 0.00 0.00 1.00 
2571278.50 1096257.62 2264.67 15934 16705 23901 17219.00 1.00 1.00 1.00 0.00 20.00 0.00 0.00 1.00 
2571279.00 1096257.75 2264.97 11565 13621 20560 13621.00 1.00 1.00 1.00 0.00 4.00 0.00 0.00 1.00 
2571277.00 1096257.75 2262.45 16448 17219 23644 17476.00 1.00 1.00 1.00 0.00 4.00 0.00 0.00 1.00 
2571278.00 1096259.00 2263.78 14649 16191 23387 16448.00 1.00 1.00 1.00 0.00 4.00 0.00 0.00 1.00 
2571278.50 1096259.12 2263.78 12850 14392 21845 14649.00 1.00 1.00 1.00 0.00 4.00 0.00 0.00 1.00 
2571279.00 1096259.38 2267.43 10280 12593 19789 12593.00 1.00 1.00 1.00 0.00 5.00 0.00 0.00 1.00 
2571278.75 1096259.38 2263.93 11308 12850 20046 13107.00 1.00 1.00 1.00 0.00 20.00 0.00 0.00 1.00 
2571278.75 1096260.75 2264.52 17476 18761 25957 19018.00 1.00 1.00 1.00 0.00 21.00 0.00 0.00 1.00 
2571277.75 1096259.62 2263.83 15420 16705 23901 16962.00 1.00 1.00 1.00 0.00 20.00 0.00 0.00 1.00 
2571278.25 1096259.75 2263.93 11822 13878 20817 13878.00 1.00 1.00 1.00 0.00 4.00 0.00 0.00 1.00 
2571278.50 1096260.00 2264.32 10794 12850 20303 12850.00 1.00 1.00 1.00 0.00 20.00 0.00 0.00 1.00 
2571279.00 1096260.12 2264.18 12850 14906 22359 14906.00 1.00 1.00 1.00 0.00 4.00 0.00 0.00 1.00 
2571278.25 1096261.38 2261.56 15420 16191 22616 16448.00 1.00 1.00 1.00 0.00 4.00 0.00 0.00 1.00 
2571278.25 1096262.25 2261.61 16705 17476 23901 17733.00 1.00 1.00 1.00 0.00 4.00 0.00 0.00 1.00 
2571278.75 1096254.75 2269.85 10794 13621 21331 13621.00 1.00 1.00 1.00 0.00 21.00 0.00 0.00 1.00 
2571277.75 1096254.75 2268.37 21588 20560 25443 21331.00 1.00 1.00 1.00 0.00 5.00 0.00 0.00 1.00 
2571278.75 1096255.25 2268.67 11308 13364 20560 13364.00 1.00 1.00 1.00 0.00 5.00 0.00 0.00 1.00 
2571278.25 1096255.00 2268.62 17219 17476 23130 17990.00 1.00 1.00 1.00 0.00 5.00 0.00 0.00 1.00 
2571278.00 1096255.50 2267.04 14906 16448 23130 16705.00 1.00 1.00 1.00 0.00 5.00 0.00 0.00 1.00 
2571278.25 1096256.25 2265.80 15420 16191 22359 16448.00 1.00 1.00 1.00 0.00 4.00 0.00 0.00 1.00 
2571277.50 1096256.00 2264.18 18247 17733 24158 18504.00 1.00 1.00 1.00 0.00 4.00 0.00 0.00 1.00 
2571277.75 1096256.12 2265.76 19018 19275 25186 19789.00 1.00 1.00 1.00 0.00 4.00 0.00 0.00 1.00 
2571277.50 1096255.88 2264.77 20817 19275 24672 20303.00 1.00 1.00 1.00 0.00 4.00 0.00 0.00 1.00 
2571277.25 1096255.88 2265.90 20303 19789 25443 20560.00 1.00 1.00 1.00 0.00 5.00 0.00 0.00 1.00 
2571277.00 1096255.75 2266.25 20303 19275 24158 20046.00 1.00 1.00 1.00 0.00 5.00 0.00 0.00 1.00 
2571276.75 1096255.62 2265.46 22616 21074 25443 21845.00 1.00 1.00 1.00 0.00 5.00 0.00 0.00 1.00 
2571278.75 1096257.00 2264.77 10280 12336 18761 12336.00 1.00 1.00 1.00 0.00 4.00 0.00 0.00 1.00 
2571277.50 1096256.38 2265.02 20560 20046 24929 20560.00 1.00 1.00 1.00 0.00 4.00 0.00 0.00 1.00 
2571277.50 1096256.38 2265.95 20817 20560 25443 21074.00 1.00 1.00 1.00 0.00 5.00 0.00 0.00 1.00 
2571277.25 1096256.25 2266.50 24672 22873 26471 23644.00 1.00 1.00 1.00 0.00 5.00 0.00 0.00 1.00 
2571277.00 1096256.12 2266.55 22102 20046 23901 21074.00 1.00 1.00 1.00 0.00 5.00 0.00 0.00 1.00 
2571278.75 1096257.50 2264.82 12593 14392 21845 14649.00 1.00 1.00 1.00 0.00 20.00 0.00 0.00 1.00 
2571278.00 1096257.12 2264.18 16705 17219 23387 17733.00 1.00 1.00 1.00 0.00 4.00 0.00 0.00 1.00 
2571278.25 1096257.25 2265.61 20303 20303 25957 20817.00 1.00 1.00 1.00 0.00 4.00 0.00 0.00 1.00 
2571277.75 1096257.00 2264.32 19275 18247 21845 18761.00 1.00 1.00 1.00 0.00 4.00 0.00 0.00 1.00 
2571277.75 1096257.00 2265.85 22102 21074 25186 21588.00 1.00 1.00 1.00 0.00 5.00 0.00 0.00 1.00 
2571277.25 1096256.88 2265.80 27756 25443 28270 26214.00 1.00 1.00 1.00 0.00 21.00 0.00 0.00 1.00 
2571277.25 1096256.75 2266.40 27756 25186 27756 26214.00 1.00 1.00 1.00 0.00 21.00 0.00 0.00 1.00 
2571276.75 1096256.62 2266.69 26214 23644 25957 24415.00 1.00 1.00 1.00 0.00 5.00 0.00 0.00 1.00 
2571278.50 1096257.88 2264.82 16962 18247 26214 18504.00 1.00 1.00 1.00 0.00 20.00 0.00 0.00 1.00 
2571278.25 1096257.75 2265.16 16191 16962 24158 17476.00 1.00 1.00 1.00 0.00 4.00 0.00 0.00 1.00 
2571278.00 1096257.62 2265.56 18761 19018 25700 19532.00 1.00 1.00 1.00 0.00 5.00 0.00 0.00 1.00 
2571277.50 1096257.38 2265.51 21588 20560 24929 21331.00 1.00 1.00 1.00 0.00 5.00 0.00 0.00 1.00 
2571277.00 1096257.25 2264.57 19532 19018 23130 19532.00 1.00 1.00 1.00 0.00 4.00 0.00 0.00 1.00 
2571276.75 1096257.00 2264.87 22102 20303 22873 21074.00 1.00 1.00 1.00 0.00 5.00 0.00 0.00 1.00 
2571276.25 1096256.88 2264.77 22359 20560 24672 21331.00 1.00 1.00 1.00 0.00 5.00 0.00 0.00 1.00 
2571277.00 1096257.75 2263.19 17733 18504 24672 18761.00 1.00 1.00 1.00 0.00 4.00 0.00 0.00 1.00 
2571276.75 1096257.62 2263.49 17733 17990 24415 18504.00 1.00 1.00 1.00 0.00 4.00 0.00 0.00 1.00 
2571278.00 1096259.62 2263.88 13364 14906 22359 15163.00 1.00 1.00 1.00 0.00 20.00 0.00 0.00 1.00 
2571277.75 1096259.50 2264.08 16191 17476 24929 17733.00 1.00 1.00 1.00 0.00 5.00 0.00 0.00 1.00 
2571279.00 1096260.75 2262.69 18247 18504 24672 19018.00 1.00 1.00 1.00 0.00 4.00 0.00 0.00 1.00 
2571278.50 1096260.62 2262.65 22102 23387 30326 23644.00 1.00 1.00 1.00 0.00 20.00 0.00 0.00 1.00 
2571278.75 1096260.75 2264.47 17476 18761 25957 19018.00 1.00 1.00 1.00 0.00 21.00 0.00 0.00 1.00 
2571278.50 1096260.62 2264.72 13364 15420 22616 15420.00 1.00 1.00 1.00 0.00 21.00 0.00 0.00 1.00 
2571278.50 1096261.00 2264.52 16191 17476 24672 17733.00 1.00 1.00 1.00 0.00 5.00 0.00 0.00 1.00 
2571278.25 1096260.88 2264.72 15420 16962 24158 17219.00 1.00 1.00 1.00 0.00 5.00 0.00 0.00 1.00 
2571278.50 1096262.12 2262.25 22102 21588 27756 22359.00 1.00 1.00 1.00 0.00 4.00 0.00 0.00 1.00 
2571278.25 1096261.88 2262.20 15420 16191 22616 16448.00 1.00 1.00 1.00 0.00 5.00 0.00 0.00 1.00 
2571282.25 1096255.38 2270.99 12079 13621 20817 13878.00 1.00 1.00 1.00 0.00 4.00 0.00 0.00 1.00 
2571282.50 1096256.62 2270.44 12850 14649 22616 14906.00 1.00 1.00 1.00 0.00 4.00 0.00 0.00 1.00 
2571282.25 1096256.38 2269.90 10280 12336 20560 12593.00 1.00 1.00 1.00 0.00 4.00 0.00 0.00 1.00 
2571282.00 1096256.00 2269.36 10537 12336 20303 12593.00 1.00 1.00 1.00 0.00 4.00 0.00 0.00 1.00 
2571281.75 1096255.62 2269.26 14135 16191 24158 16448.00 1.00 1.00 1.00 0.00 4.00 0.00 0.00 1.00 
2571282.50 1096256.75 2272.47 17476 18761 26471 19018.00 1.00 1.00 1.00 0.00 5.00 0.00 0.00 1.00 
2571283.25 1096257.62 2270.49 16191 17733 25443 17990.00 1.00 1.00 1.00 0.00 4.00 0.00 0.00 1.00 
2571282.25 1096256.25 2272.42 16962 18247 25957 18504.00 1.00 1.00 1.00 0.00 5.00 0.00 0.00 1.00 
2571282.50 1096256.88 2270.99 23130 23644 31611 24158.00 1.00 1.00 1.00 0.00 4.00 0.00 0.00 1.00 
2571283.00 1096258.50 2269.85 17476 19532 27756 19789.00 1.00 1.00 1.00 0.00 4.00 0.00 0.00 1.00 
2571282.25 1096257.75 2270.49 14906 17476 25443 17476.00 1.00 1.00 1.00 0.00 20.00 0.00 0.00 1.00 
2571282.00 1096257.25 2270.44 13107 15677 23901 15677.00 1.00 1.00 1.00 0.00 4.00 0.00 0.00 1.00 
2571281.75 1096256.88 2270.00 11308 13878 22102 13878.00 1.00 1.00 1.00 0.00 4.00 0.00 0.00 1.00 
2571281.75 1096256.62 2269.31 12079 14392 22102 14392.00 1.00 1.00 1.00 0.00 4.00 0.00 0.00 1.00 
2571281.25 1096255.88 2269.75 12079 14649 22616 14649.00 1.00 1.00 1.00 0.00 4.00 0.00 0.00 1.00 
2571281.50 1096256.38 2268.72 11051 13364 21331 13364.00 1.00 1.00 1.00 0.00 4.00 0.00 0.00 1.00 
2571281.00 1096255.75 2269.01 10280 12850 20817 12850.00 1.00 1.00 1.00 0.00 4.00 0.00 0.00 1.00 
2571280.75 1096255.38 2268.57 9509 12079 19789 12079.00 1.00 1.00 1.00 0.00 4.00 0.00 0.00 1.00 
2571280.50 1096255.00 2268.47 9509 11822 19789 11822.00 1.00 1.00 1.00 0.00 4.00 0.00 0.00 1.00 
2571282.00 1096258.00 2270.99 12593 15677 23644 15420.00 1.00 1.00 1.00 0.00 5.00 0.00 0.00 1.00 
2571281.75 1096257.62 2270.59 12850 15934 23901 15677.00 1.00 1.00 1.00 0.00 21.00 0.00 0.00 1.00 
2571281.75 1096257.38 2270.00 12336 14649 22873 14649.00 1.00 1.00 1.00 0.00 5.00 0.00 0.00 1.00 
2571281.75 1096257.50 2268.77 11565 14135 22616 14135.00 1.00 1.00 1.00 0.00 4.00 0.00 0.00 1.00 
2571280.75 1096256.00 2270.79 9509 12079 20303 12079.00 1.00 1.00 1.00 0.00 5.00 0.00 0.00 1.00 
2571281.00 1096256.62 2269.51 11308 14135 22102 14135.00 1.00 1.00 1.00 0.00 4.00 0.00 0.00 1.00 
2571281.50 1096257.12 2268.27 13364 15934 24158 15934.00 1.00 1.00 1.00 0.00 4.00 0.00 0.00 1.00 
2571280.50 1096255.62 2270.49 9509 12336 20560 12336.00 1.00 1.00 1.00 0.00 5.00 0.00 0.00 1.00 
2571280.25 1096255.50 2269.75 8995 11822 19532 11822.00 1.00 1.00 1.00 0.00 5.00 0.00 0.00 1.00 
2571280.00 1096254.88 2269.80 9766 12593 20560 12593.00 1.00 1.00 1.00 0.00 5.00 0.00 0.00 1.00 
2571282.75 1096260.00 2267.93 9766 13107 21588 12850.00 1.00 1.00 1.00 0.00 4.00 0.00 0.00 1.00 
2571281.50 1096258.25 2270.59 13621 16448 24929 16448.00 1.00 1.00 1.00 0.00 5.00 0.00 0.00 1.00 
2571282.50 1096259.38 2268.17 11565 14135 22359 14135.00 1.00 1.00 1.00 0.00 4.00 0.00 0.00 1.00 
2571281.50 1096258.25 2269.61 13621 16448 24672 16448.00 1.00 1.00 1.00 0.00 5.00 0.00 0.00 1.00 
2571281.25 1096258.00 2269.16 12593 15163 23644 15163.00 1.00 1.00 1.00 0.00 4.00 0.00 0.00 1.00 
2571281.25 1096257.88 2268.17 8995 12336 20560 12079.00 1.00 1.00 1.00 0.00 4.00 0.00 0.00 1.00 
2571280.25 1096256.25 2270.64 9509 12593 20303 12336.00 1.00 1.00 1.00 0.00 5.00 0.00 0.00 1.00 
2571280.50 1096256.88 2269.31 10537 13621 21331 13364.00 1.00 1.00 1.00 0.00 5.00 0.00 0.00 1.00 
2571280.00 1096255.88 2270.20 9509 11822 20046 11822.00 1.00 1.00 1.00 0.00 5.00 0.00 0.00 1.00 
2571279.75 1096255.62 2269.80 9509 11822 19789 11822.00 1.00 1.00 1.00 0.00 21.00 0.00 0.00 1.00 
2571279.50 1096255.25 2269.41 10537 13107 21074 13107.00 1.00 1.00 1.00 0.00 5.00 0.00 0.00 1.00 
2571282.25 1096259.75 2268.47 11308 14135 22359 14135.00 1.00 1.00 1.00 0.00 4.00 0.00 0.00 1.00 
2571282.00 1096259.50 2267.83 11565 14649 22873 14392.00 1.00 1.00 1.00 0.00 4.00 0.00 0.00 1.00 
2571280.50 1096257.25 2269.31 11051 13621 21331 13621.00 1.00 1.00 1.00 0.00 5.00 0.00 0.00 1.00 
2571280.00 1096256.62 2269.70 11308 13878 21845 13878.00 1.00 1.00 1.00 0.00 5.00 0.00 0.00 1.00 
2571279.50 1096256.12 2269.90 9766 12336 19789 12336.00 1.00 1.00 1.00 0.00 5.00 0.00 0.00 1.00 
2571279.50 1096255.88 2269.21 8738 11051 18761 11051.00 1.00 1.00 1.00 0.00 5.00 0.00 0.00 1.00 
2571281.25 1096259.62 2268.22 13107 15934 24415 15934.00 1.00 1.00 1.00 0.00 4.00 0.00 0.00 1.00 
2571281.00 1096259.00 2268.62 9252 12336 20560 12079.00 1.00 1.00 1.00 0.00 5.00 0.00 0.00 1.00 
2571281.50 1096259.62 2266.94 10537 12336 19789 12593.00 1.00 1.00 1.00 0.00 4.00 0.00 0.00 1.00 
2571280.50 1096258.50 2268.42 9509 12593 20817 12336.00 1.00 1.00 1.00 0.00 5.00 0.00 0.00 1.00 
2571279.75 1096257.25 2268.91 15420 16705 24415 16962.00 1.00 1.00 1.00 0.00 5.00 0.00 0.00 1.00 
2571279.50 1096256.75 2268.87 15677 16705 24158 16962.00 1.00 1.00 1.00 0.00 5.00 0.00 0.00 1.00 
2571279.25 1096256.38 2268.42 13621 15163 22102 15420.00 1.00 1.00 1.00 0.00 5.00 0.00 0.00 1.00 
2571281.00 1096259.62 2269.70 11822 15163 23387 14906.00 1.00 1.00 1.00 0.00 5.00 0.00 0.00 1.00 
2571280.75 1096259.38 2269.26 10794 13878 22102 13621.00 1.00 1.00 1.00 0.00 5.00 0.00 0.00 1.00 
2571280.50 1096259.12 2268.62 10280 13364 21588 13107.00 1.00 1.00 1.00 0.00 5.00 0.00 0.00 1.00 
2571280.25 1096258.88 2268.08 9252 12336 20817 12336.00 1.00 1.00 1.00 0.00 5.00 0.00 0.00 1.00 
2571280.00 1096258.50 2267.73 10023 13107 21074 12850.00 1.00 1.00 1.00 0.00 5.00 0.00 0.00 1.00 
2571279.25 1096257.12 2268.47 12593 13878 21331 14135.00 1.00 1.00 1.00 0.00 5.00 0.00 0.00 1.00 
2571280.00 1096258.25 2266.00 10023 12850 21074 12850.00 1.00 1.00 1.00 0.00 4.00 0.00 0.00 1.00 
2571279.00 1096256.88 2267.68 11822 13107 20560 13364.00 1.00 1.00 1.00 0.00 5.00 0.00 0.00 1.00 
2571280.50 1096259.75 2270.79 12079 14906 22873 14906.00 1.00 1.00 1.00 0.00 5.00 0.00 0.00 1.00 
2571280.25 1096259.50 2270.20 9509 12336 20046 12336.00 1.00 1.00 1.00 0.00 5.00 0.00 0.00 1.00 
2571280.00 1096259.38 2269.41 8738 11051 18761 11051.00 1.00 1.00 1.00 0.00 5.00 0.00 0.00 1.00 
2571280.00 1096259.12 2268.82 9766 12593 20560 12593.00 1.00 1.00 1.00 0.00 5.00 0.00 0.00 1.00 
2571279.75 1096258.75 2268.22 9766 13107 20817 12850.00 1.00 1.00 1.00 0.00 5.00 0.00 0.00 1.00 
2571279.50 1096258.50 2267.78 10280 13107 21074 13107.00 1.00 1.00 1.00 0.00 5.00 0.00 0.00 1.00 
2571279.50 1096258.38 2266.84 12079 14392 22616 14392.00 1.00 1.00 1.00 0.00 4.00 0.00 0.00 1.00 
2571279.50 1096258.50 2265.51 11822 13107 20817 13364.00 1.00 1.00 1.00 0.00 4.00 0.00 0.00 1.00 
2571279.25 1096258.00 2265.41 12593 14135 21845 14392.00 1.00 1.00 1.00 0.00 4.00 0.00 0.00 1.00 
2571280.00 1096260.00 2270.15 9766 12336 19789 12336.00 1.00 1.00 1.00 0.00 5.00 0.00 0.00 1.00 
2571279.75 1096259.75 2269.56 10023 12850 20046 12593.00 1.00 1.00 1.00 0.00 5.00 0.00 0.00 1.00 
2571279.50 1096259.50 2269.01 9252 11822 19532 11822.00 1.00 1.00 1.00 0.00 5.00 0.00 0.00 1.00 
2571279.50 1096259.25 2268.37 9509 12336 19789 12079.00 1.00 1.00 1.00 0.00 5.00 0.00 0.00 1.00 
2571279.25 1096259.12 2267.63 9509 12079 19532 12079.00 1.00 1.00 1.00 0.00 5.00 0.00 0.00 1.00 
2571279.25 1096259.00 2266.69 10794 12593 20817 12850.00 1.00 1.00 1.00 0.00 5.00 0.00 0.00 1.00 
2571279.00 1096258.75 2266.10 14392 15677 23901 16191.00 1.00 1.00 1.00 0.00 4.00 0.00 0.00 1.00 
2571279.50 1096260.50 2267.78 10537 13107 20817 13107.00 1.00 1.00 1.00 0.00 5.00 0.00 0.00 1.00 
2571279.50 1096260.38 2266.94 11051 13878 21074 13621.00 1.00 1.00 1.00 0.00 5.00 0.00 0.00 1.00 
2571279.00 1096259.88 2266.79 9766 12079 19275 12079.00 1.00 1.00 1.00 0.00 5.00 0.00 0.00 1.00 
2571279.00 1096259.88 2265.76 10023 12336 20046 12336.00 1.00 1.00 1.00 0.00 5.00 0.00 0.00 1.00 
2571279.75 1096260.88 2263.48 13364 15420 21845 15420.00 1.00 1.00 1.00 0.00 4.00 0.00 0.00 1.00 
2571279.25 1096260.00 2264.32 11822 13364 21331 13621.00 1.00 1.00 1.00 0.00 4.00 0.00 0.00 1.00 
2571279.50 1096261.88 2262.40 16191 17476 24415 17733.00 1.00 1.00 1.00 0.00 4.00 0.00 0.00 1.00 
2571279.25 1096262.25 2262.35 17733 18247 24929 18761.00 1.00 1.00 1.00 0.00 4.00 0.00 0.00 1.00 
2571279.25 1096261.88 2262.30 17990 19018 25700 19275.00 1.00 1.00 1.00 0.00 4.00 0.00 0.00 1.00 
2571279.50 1096262.25 2262.35 15677 16448 23644 16962.00 1.00 1.00 1.00 0.00 4.00 0.00 0.00 1.00 
2571279.25 1096259.88 2263.93 11565 13621 20817 13621.00 1.00 1.00 1.00 0.00 4.00 0.00 0.00 1.00 
2571279.50 1096260.12 2264.08 13621 15163 23130 15420.00 1.00 1.00 1.00 0.00 4.00 0.00 0.00 1.00 
2571279.25 1096260.00 2266.94 10537 13107 20560 13107.00 1.00 1.00 1.00 0.00 5.00 0.00 0.00 1.00 
2571279.50 1096260.38 2266.99 10280 12336 20046 12336.00 1.00 1.00 1.00 0.00 5.00 0.00 0.00 1.00 
2571279.50 1096260.50 2268.27 10794 13364 20817 13364.00 1.00 1.00 1.00 0.00 5.00 0.00 0.00 1.00 
2571279.25 1096257.75 2265.11 12079 13878 20817 13878.00 1.00 1.00 1.00 0.00 4.00 0.00 0.00 1.00 
2571279.50 1096258.25 2265.36 12850 14392 22616 14649.00 1.00 1.00 1.00 0.00 4.00 0.00 0.00 1.00 
2571279.50 1096258.25 2266.74 10537 12336 20303 12593.00 1.00 1.00 1.00 0.00 4.00 0.00 0.00 1.00 
2571279.50 1096258.50 2267.73 10280 12850 20817 12850.00 1.00 1.00 1.00 0.00 21.00 0.00 0.00 1.00 
2571279.75 1096258.75 2268.22 9766 12850 21074 12593.00 1.00 1.00 1.00 0.00 21.00 0.00 0.00 1.00 
2571280.00 1096259.00 2268.82 9766 12593 20560 12593.00 1.00 1.00 1.00 0.00 21.00 0.00 0.00 1.00 
2571280.00 1096259.38 2269.51 10023 12850 20817 12850.00 1.00 1.00 1.00 0.00 5.00 0.00 0.00 1.00 
2571280.25 1096259.62 2270.25 9509 12336 19789 12079.00 1.00 1.00 1.00 0.00 21.00 0.00 0.00 1.00 
2571280.50 1096260.00 2270.39 10794 13364 21074 13364.00 1.00 1.00 1.00 0.00 5.00 0.00 0.00 1.00 
2571279.25 1096256.25 2268.32 10537 12593 19789 12593.00 1.00 1.00 1.00 0.00 5.00 0.00 0.00 1.00 
2571279.50 1096256.50 2268.96 12850 14392 22102 14649.00 1.00 1.00 1.00 0.00 5.00 0.00 0.00 1.00 
2571279.75 1096257.00 2268.52 15420 16705 23901 16962.00 1.00 1.00 1.00 0.00 21.00 0.00 0.00 1.00 
2571280.25 1096258.12 2267.63 8481 11822 19789 11565.00 1.00 1.00 1.00 0.00 4.00 0.00 0.00 1.00 
2571280.50 1096258.50 2268.12 8481 11308 19532 11308.00 1.00 1.00 1.00 0.00 5.00 0.00 0.00 1.00 
2571280.75 1096258.88 2268.32 8481 11051 19018 11051.00 1.00 1.00 1.00 0.00 5.00 0.00 0.00 1.00 
2571281.00 1096259.12 2269.06 10537 13621 21588 13364.00 1.00 1.00 1.00 0.00 5.00 0.00 0.00 1.00 
2571281.25 1096259.50 2269.21 11822 14906 23130 14649.00 1.00 1.00 1.00 0.00 5.00 0.00 0.00 1.00 
2571281.25 1096259.62 2268.42 11051 14135 22616 14135.00 1.00 1.00 1.00 0.00 5.00 0.00 0.00 1.00 
2571281.50 1096260.12 2266.50 8738 11565 18761 11308.00 1.00 1.00 1.00 0.00 4.00 0.00 0.00 1.00 
2571279.75 1096255.12 2269.31 8995 11565 19275 11565.00 1.00 1.00 1.00 0.00 5.00 0.00 0.00 1.00 
2571279.75 1096255.50 2269.75 8995 11565 19532 11565.00 1.00 1.00 1.00 0.00 5.00 0.00 0.00 1.00 
2571280.00 1096255.88 2270.10 8995 11822 19789 11822.00 1.00 1.00 1.00 0.00 5.00 0.00 0.00 1.00 
2571280.25 1096256.12 2270.25 9766 12850 21074 12593.00 1.00 1.00 1.00 0.00 5.00 0.00 0.00 1.00 
2571280.75 1096256.88 2269.11 9766 12593 20303 12593.00 1.00 1.00 1.00 0.00 5.00 0.00 0.00 1.00 
2571282.25 1096259.38 2267.78 10280 13878 21845 13621.00 1.00 1.00 1.00 0.00 4.00 0.00 0.00 1.00 
2571282.50 1096259.62 2268.32 10280 13621 21588 13364.00 1.00 1.00 1.00 0.00 4.00 0.00 0.00 1.00 
2571281.00 1096255.62 2269.51 11308 13878 21845 13878.00 1.00 1.00 1.00 0.00 4.00 0.00 0.00 1.00 
2571281.75 1096256.88 2268.57 11565 13621 21588 13878.00 1.00 1.00 1.00 0.00 4.00 0.00 0.00 1.00 
2571281.75 1096256.88 2269.95 12079 14392 22873 14392.00 1.00 1.00 1.00 0.00 20.00 0.00 0.00 1.00 
2571282.00 1096257.25 2270.30 12850 15420 23387 15420.00 1.00 1.00 1.00 0.00 4.00 0.00 0.00 1.00 
2571282.25 1096257.62 2270.59 13107 15934 24158 15934.00 1.00 1.00 1.00 0.00 4.00 0.00 0.00 1.00 
2571282.50 1096258.00 2270.79 15677 17733 26214 17990.00 1.00 1.00 1.00 0.00 4.00 0.00 0.00 1.00 
2571282.75 1096258.75 2269.65 16705 19018 26985 19018.00 1.00 1.00 1.00 0.00 4.00 0.00 0.00 1.00 
2571281.75 1096254.88 2272.76 12079 14392 22102 14392.00 1.00 1.00 1.00 0.00 5.00 0.00 0.00 1.00 
2571282.25 1096255.75 2272.62 15163 16448 23901 16705.00 1.00 1.00 1.00 0.00 5.00 0.00 0.00 1.00 
2571282.50 1096256.38 2270.25 17733 19018 26728 19275.00 1.00 1.00 1.00 0.00 4.00 0.00 0.00 1.00 
2571282.75 1096256.38 2272.12 19275 20303 27756 20560.00 1.00 1.00 1.00 0.00 5.00 0.00 0.00 1.00 
2571283.00 1096257.00 2271.28 20303 20817 28527 21331.00 1.00 1.00 1.00 0.00 4.00 0.00 0.00 1.00 
2571283.75 1096256.75 2271.63 17990 19018 26728 19532.00 1.00 1.00 1.00 0.00 4.00 0.00 0.00 1.00 
2571279.25 1096261.38 2262.30 13878 14906 21588 15163.00 1.00 1.00 1.00 0.00 4.00 0.00 0.00 1.00 
2571280.00 1096260.75 2265.26 12850 15420 22873 15420.00 1.00 1.00 1.00 0.00 4.00 0.00 0.00 1.00 
2571279.75 1096260.62 2267.98 10280 13107 20817 13107.00 1.00 1.00 1.00 0.00 5.00 0.00 0.00 1.00 
2571279.50 1096260.25 2268.37 9766 12593 20046 12336.00 1.00 1.00 1.00 0.00 5.00 0.00 0.00 1.00 
2571279.50 1096259.88 2267.73 9509 12079 19789 12079.00 1.00 1.00 1.00 0.00 5.00 0.00 0.00 1.00 
2571279.25 1096259.50 2267.48 9252 11308 19018 11308.00 1.00 1.00 1.00 0.00 5.00 0.00 0.00 1.00 
2571281.00 1096260.25 2268.42 11051 14135 22102 13878.00 1.00 1.00 1.00 0.00 5.00 0.00 0.00 1.00 
2571280.75 1096259.88 2269.56 11051 14392 22102 14135.00 1.00 1.00 1.00 0.00 5.00 0.00 0.00 1.00 
2571280.50 1096259.62 2270.25 10537 13107 20817 13107.00 1.00 1.00 1.00 0.00 5.00 0.00 0.00 1.00 
2571280.25 1096259.25 2269.11 10794 13878 21588 13621.00 1.00 1.00 1.00 0.00 5.00 0.00 0.00 1.00 
2571279.50 1096258.38 2267.83 10280 12850 20817 12850.00 1.00 1.00 1.00 0.00 5.00 0.00 0.00 1.00 
2571279.25 1096258.00 2266.74 14135 15934 23901 16191.00 1.00 1.00 1.00 0.00 4.00 0.00 0.00 1.00 
2571279.25 1096258.00 2265.46 12336 13878 22102 14135.00 1.00 1.00 1.00 0.00 20.00 0.00 0.00 1.00 
2571279.00 1096257.62 2264.87 12079 13878 21331 14135.00 1.00 1.00 1.00 0.00 4.00 0.00 0.00 1.00 
2571281.75 1096259.88 2267.93 11308 14392 22616 14135.00 1.00 1.00 1.00 0.00 4.00 0.00 0.00 1.00 
2571280.75 1096258.50 2268.37 8738 12336 20303 12079.00 1.00 1.00 1.00 0.00 5.00 0.00 0.00 1.00 
2571280.50 1096258.12 2268.37 8738 11822 19789 11565.00 1.00 1.00 1.00 0.00 5.00 0.00 0.00 1.00 
2571280.00 1096257.38 2267.24 11308 13364 21074 13364.00 1.00 1.00 1.00 0.00 4.00 0.00 0.00 1.00 
2571279.75 1096257.12 2268.57 15934 16962 24672 17476.00 1.00 1.00 1.00 0.00 21.00 0.00 0.00 1.00 
2571279.50 1096256.75 2268.32 15163 16191 23644 16448.00 1.00 1.00 1.00 0.00 5.00 0.00 0.00 1.00 
2571279.25 1096256.38 2268.91 12336 14135 21331 14135.00 1.00 1.00 1.00 0.00 5.00 0.00 0.00 1.00 
2571279.00 1096256.00 2268.32 10023 12336 19532 12336.00 1.00 1.00 1.00 0.00 5.00 0.00 0.00 1.00 
2571279.75 1096255.25 2269.65 8995 12079 20046 11822.00 1.00 1.00 1.00 0.00 5.00 0.00 0.00 1.00 
2571279.50 1096254.88 2269.36 10794 13621 21331 13621.00 1.00 1.00 1.00 0.00 5.00 0.00 0.00 1.00 
2571282.75 1096259.38 2268.27 9509 12593 20303 12336.00 1.00 1.00 1.00 0.00 4.00 0.00 0.00 1.00 
2571282.50 1096259.12 2269.31 15163 17733 25700 17733.00 1.00 1.00 1.00 0.00 4.00 0.00 0.00 1.00 
2571282.25 1096258.75 2269.56 17219 19018 26985 19275.00 1.00 1.00 1.00 0.00 4.00 0.00 0.00 1.00 
2571282.00 1096258.50 2270.44 15420 17990 26214 17990.00 1.00 1.00 1.00 0.00 5.00 0.00 0.00 1.00 
2571281.75 1096258.12 2270.54 13878 16705 24929 16705.00 1.00 1.00 1.00 0.00 5.00 0.00 0.00 1.00 
2571281.50 1096257.75 2270.35 12593 15420 23644 15420.00 1.00 1.00 1.00 0.00 5.00 0.00 0.00 1.00 
2571281.50 1096257.62 2267.83 12593 15420 24415 15420.00 1.00 1.00 1.00 0.00 4.00 0.00 0.00 1.00 
2571281.00 1096257.00 2269.41 8738 11565 19532 11565.00 1.00 1.00 1.00 0.00 5.00 0.00 0.00 1.00 
2571280.75 1096256.62 2268.96 11051 13621 21845 13621.00 1.00 1.00 1.00 0.00 4.00 0.00 0.00 1.00 
2571280.50 1096256.25 2269.90 10023 12850 21074 12850.00 1.00 1.00 1.00 0.00 5.00 0.00 0.00 1.00 
2571280.25 1096256.00 2270.69 9509 12336 20560 12336.00 1.00 1.00 1.00 0.00 5.00 0.00 0.00 1.00 
2571280.00 1096255.62 2270.69 9509 12336 20303 12336.00 1.00 1.00 1.00 0.00 5.00 0.00 0.00 1.00 
2571283.25 1096258.25 2269.95 17476 20046 28270 20046.00 1.00 1.00 1.00 0.00 4.00 0.00 0.00 1.00 
2571283.00 1096258.00 2270.05 16705 18504 25957 18761.00 1.00 1.00 1.00 0.00 4.00 0.00 0.00 1.00 
2571282.75 1096257.62 2270.39 15163 17219 24929 17219.00 1.00 1.00 1.00 0.00 4.00 0.00 0.00 1.00 
2571282.50 1096257.25 2270.69 14649 16962 24929 16962.00 1.00 1.00 1.00 0.00 4.00 0.00 0.00 1.00 
2571282.25 1096256.88 2270.49 13107 15420 23901 15420.00 1.00 1.00 1.00 0.00 4.00 0.00 0.00 1.00 
2571281.75 1096256.50 2269.16 13621 16191 24672 16191.00 1.00 1.00 1.00 0.00 4.00 0.00 0.00 1.00 
2571281.25 1096255.75 2268.96 12336 14135 21588 14392.00 1.00 1.00 1.00 0.00 4.00 0.00 0.00 1.00 
2571281.00 1096255.50 2268.91 11051 13621 21845 13621.00 1.00 1.00 1.00 0.00 20.00 0.00 0.00 1.00 
2571283.50 1096257.12 2271.33 19532 21074 28784 21331.00 1.00 1.00 1.00 0.00 4.00 0.00 0.00 1.00 
2571283.25 1096256.88 2271.58 19018 19789 27499 20303.00 1.00 1.00 1.00 0.00 4.00 0.00 0.00 1.00 
2571283.00 1096256.50 2271.68 19018 19532 25957 20046.00 1.00 1.00 1.00 0.00 4.00 0.00 0.00 1.00 
2571283.00 1096256.38 2271.14 19789 20817 28527 21331.00 1.00 1.00 1.00 0.00 4.00 0.00 0.00 1.00 
2571283.00 1096256.12 2272.81 16705 17990 25443 18247.00 1.00 1.00 1.00 0.00 5.00 0.00 0.00 1.00 
2571284.00 1096256.12 2272.52 16962 17733 25700 18247.00 1.00 1.00 1.00 0.00 4.00 0.00 0.00 1.00 
2571283.75 1096255.75 2272.76 16448 17476 25186 17990.00 1.00 1.00 1.00 0.00 4.00 0.00 0.00 1.00 
2571284.00 1096256.00 2272.47 17219 18247 25957 18761.00 1.00 1.00 1.00 0.00 4.00 0.00 0.00 1.00 
2571283.50 1096256.38 2272.02 19789 20046 27499 20560.00 1.00 1.00 1.00 0.00 4.00 0.00 0.00 1.00 
2571283.75 1096256.62 2271.88 16191 17219 24672 17476.00 1.00 1.00 1.00 0.00 4.00 0.00 0.00 1.00 
2571282.25 1096255.50 2272.76 12850 14649 22102 14906.00 1.00 1.00 1.00 0.00 5.00 0.00 0.00 1.00 
2571282.25 1096255.75 2272.32 16191 16962 24415 17476.00 1.00 1.00 1.00 0.00 5.00 0.00 0.00 1.00 
2571282.50 1096255.88 2271.68 15163 16191 24158 16705.00 1.00 1.00 1.00 0.00 5.00 0.00 0.00 1.00 
2571282.75 1096256.38 2271.73 19018 20046 27756 20560.00 1.00 1.00 1.00 0.00 4.00 0.00 0.00 1.00 
2571283.00 1096256.62 2271.63 22102 22873 30326 23387.00 1.00 1.00 1.00 0.00 4.00 0.00 0.00 1.00 
2571282.75 1096256.25 2270.35 22102 23130 30840 23644.00 1.00 1.00 1.00 0.00 4.00 0.00 0.00 1.00 
2571283.25 1096256.88 2271.23 21074 21588 29298 22102.00 1.00 1.00 1.00 0.00 4.00 0.00 0.00 1.00 
2571283.25 1096257.25 2271.09 17219 18504 26214 18761.00 1.00 1.00 1.00 0.00 4.00 0.00 0.00 1.00 
2571281.25 1096255.62 2269.01 11308 13878 21845 13878.00 1.00 1.00 1.00 0.00 4.00 0.00 0.00 1.00 
2571282.25 1096256.88 2270.49 13878 15677 23901 15934.00 1.00 1.00 1.00 0.00 20.00 0.00 0.00 1.00 
2571282.50 1096257.25 2270.64 15420 17476 25443 17733.00 1.00 1.00 1.00 0.00 20.00 0.00 0.00 1.00 
2571282.75 1096257.62 2270.30 16705 18761 26471 18761.00 1.00 1.00 1.00 0.00 4.00 0.00 0.00 1.00 
2571283.00 1096257.88 2270.00 16191 18247 25700 18247.00 1.00 1.00 1.00 0.00 20.00 0.00 0.00 1.00 
2571280.00 1096255.00 2269.80 9509 12079 20046 12079.00 1.00 1.00 1.00 0.00 5.00 0.00 0.00 1.00 
2571280.50 1096255.50 2270.40 9252 12079 20046 12079.00 1.00 1.00 1.00 0.00 5.00 0.00 0.00 1.00 
2571280.75 1096255.88 2270.35 10794 13621 21845 13621.00 1.00 1.00 1.00 0.00 5.00 0.00 0.00 1.00 
2571280.75 1096256.12 2269.80 9766 12593 20560 12593.00 1.00 1.00 1.00 0.00 5.00 0.00 0.00 1.00 
2571281.00 1096256.25 2269.26 11051 14392 22616 14135.00 1.00 1.00 1.00 0.00 4.00 0.00 0.00 1.00 
2571281.25 1096256.62 2269.01 12079 14135 22102 14392.00 1.00 1.00 1.00 0.00 4.00 0.00 0.00 1.00 
2571281.75 1096257.50 2270.54 13364 15677 24158 15677.00 1.00 1.00 1.00 0.00 5.00 0.00 0.00 1.00 
2571282.00 1096258.00 2270.84 13107 15677 23644 15677.00 1.00 1.00 1.00 0.00 5.00 0.00 0.00 1.00 
2571282.25 1096258.25 2270.44 15934 18247 26471 18247.00 1.00 1.00 1.00 0.00 5.00 0.00 0.00 1.00 
2571282.50 1096258.38 2269.85 19275 21074 29555 21331.00 1.00 1.00 1.00 0.00 4.00 0.00 0.00 1.00 
2571282.75 1096258.75 2269.65 17219 19275 26985 19275.00 1.00 1.00 1.00 0.00 4.00 0.00 0.00 1.00 
2571279.00 1096254.75 2269.70 11051 13878 21845 13878.00 1.00 1.00 1.00 0.00 5.00 0.00 0.00 1.00 
2571279.25 1096255.00 2269.11 10280 13107 20817 13107.00 1.00 1.00 1.00 0.00 5.00 0.00 0.00 1.00 
2571279.75 1096255.62 2270.15 9252 11822 19532 11822.00 1.00 1.00 1.00 0.00 5.00 0.00 0.00 1.00 
2571279.25 1096255.12 2268.62 10794 13878 21845 13621.00 1.00 1.00 1.00 0.00 5.00 0.00 0.00 1.00 
2571279.75 1096255.88 2269.85 9252 12079 20046 12079.00 1.00 1.00 1.00 0.00 5.00 0.00 0.00 1.00 
2571280.00 1096256.25 2269.61 9509 12593 20560 12336.00 1.00 1.00 1.00 0.00 5.00 0.00 0.00 1.00 
2571280.25 1096256.38 2268.96 10280 13107 21074 13107.00 1.00 1.00 1.00 0.00 5.00 0.00 0.00 1.00 
2571280.50 1096256.88 2269.11 11051 13364 21588 13364.00 1.00 1.00 1.00 0.00 5.00 0.00 0.00 1.00 
2571280.75 1096257.12 2268.91 10023 12850 20817 12850.00 1.00 1.00 1.00 0.00 5.00 0.00 0.00 1.00 
2571282.25 1096259.50 2267.93 11051 14135 22102 13878.00 1.00 1.00 1.00 0.00 4.00 0.00 0.00 1.00 
2571279.25 1096256.38 2268.87 11308 13107 20303 13107.00 1.00 1.00 1.00 0.00 21.00 0.00 0.00 1.00 
2571279.50 1096256.62 2268.67 13364 14135 21331 14649.00 1.00 1.00 1.00 0.00 5.00 0.00 0.00 1.00 
2571279.75 1096257.00 2268.57 15934 17219 24158 17476.00 1.00 1.00 1.00 0.00 5.00 0.00 0.00 1.00 
2571279.75 1096257.00 2267.29 12850 14392 22359 14649.00 1.00 1.00 1.00 0.00 4.00 0.00 0.00 1.00 
2571280.00 1096257.38 2267.29 11308 13364 21074 13364.00 1.00 1.00 1.00 0.00 20.00 0.00 0.00 1.00 
2571280.75 1096258.50 2268.37 8481 11822 20046 11565.00 1.00 1.00 1.00 0.00 21.00 0.00 0.00 1.00 
2571281.00 1096258.88 2268.32 8995 11822 19532 11822.00 1.00 1.00 1.00 0.00 4.00 0.00 0.00 1.00 
2571281.50 1096259.62 2268.32 12850 15677 24415 15677.00 1.00 1.00 1.00 0.00 4.00 0.00 0.00 1.00 
2571281.75 1096259.88 2268.07 11051 14135 22359 13878.00 1.00 1.00 1.00 0.00 4.00 0.00 0.00 1.00 
2571279.50 1096258.25 2268.17 11565 14392 22616 14392.00 1.00 1.00 1.00 0.00 5.00 0.00 0.00 1.00 
2571280.50 1096259.38 2270.59 10023 12850 20303 12593.00 1.00 1.00 1.00 0.00 5.00 0.00 0.00 1.00 
2571279.75 1096258.50 2267.98 10023 13107 21074 12850.00 1.00 1.00 1.00 0.00 5.00 0.00 0.00 1.00 
2571280.50 1096259.62 2270.05 9509 12079 19789 12079.00 1.00 1.00 1.00 0.00 5.00 0.00 0.00 1.00 
2571280.75 1096259.75 2269.51 11822 14906 22873 14649.00 1.00 1.00 1.00 0.00 21.00 0.00 0.00 1.00 
2571280.75 1096259.88 2268.72 11565 14392 22359 14392.00 1.00 1.00 1.00 0.00 5.00 0.00 0.00 1.00 
2571281.00 1096260.12 2268.32 11822 14392 22359 14392.00 1.00 1.00 1.00 0.00 5.00 0.00 0.00 1.00 
2571281.00 1096260.25 2267.43 12850 15677 23901 15677.00 1.00 1.00 1.00 0.00 4.00 0.00 0.00 1.00 
2571281.00 1096260.25 2266.54 11565 14649 22873 14392.00 1.00 1.00 1.00 0.00 4.00 0.00 0.00 1.00 
2571279.25 1096258.75 2267.83 10537 13364 21074 13364.00 1.00 1.00 1.00 0.00 5.00 0.00 0.00 1.00 
2571279.75 1096259.75 2269.70 10023 12593 20046 12593.00 1.00 1.00 1.00 0.00 5.00 0.00 0.00 1.00 
2571280.00 1096260.12 2269.65 11822 14649 22359 14392.00 1.00 1.00 1.00 0.00 5.00 0.00 0.00 1.00 
2571280.25 1096260.25 2268.91 12079 14906 23130 14906.00 1.00 1.00 1.00 0.00 5.00 0.00 0.00 1.00 
2571280.25 1096260.25 2267.98 9766 13364 20303 12850.00 1.00 1.00 1.00 0.00 5.00 0.00 0.00 1.00 
2571280.50 1096260.50 2267.48 12593 15163 23387 15163.00 1.00 1.00 1.00 0.00 5.00 0.00 0.00 1.00 
2571280.50 1096260.50 2266.50 13878 16448 24415 16448.00 1.00 1.00 1.00 0.00 5.00 0.00 0.00 1.00 
2571280.75 1096261.00 2266.64 12079 15420 23644 15163.00 1.00 1.00 1.00 0.00 5.00 0.00 0.00 1.00 
2571280.50 1096260.50 2265.26 12336 13878 21588 14135.00 1.00 1.00 1.00 0.00 4.00 0.00 0.00 1.00 
2571280.75 1096261.12 2265.95 7967 10537 17990 10537.00 1.00 1.00 1.00 0.00 4.00 0.00 0.00 1.00 
2571279.50 1096260.38 2268.32 10023 12593 20303 12593.00 1.00 1.00 1.00 0.00 5.00 0.00 0.00 1.00 
2571279.25 1096259.88 2266.99 9509 11822 19532 11822.00 1.00 1.00 1.00 0.00 5.00 0.00 0.00 1.00 
2571279.50 1096260.50 2267.68 10794 13364 21074 13364.00 1.00 1.00 1.00 0.00 21.00 0.00 0.00 1.00 
2571279.50 1096260.12 2266.69 10537 13107 20303 13107.00 1.00 1.00 1.00 0.00 5.00 0.00 0.00 1.00 
2571279.50 1096260.50 2266.64 10023 12850 20303 12593.00 1.00 1.00 1.00 0.00 5.00 0.00 0.00 1.00 
2571279.75 1096260.75 2266.20 11822 13878 21588 13878.00 1.00 1.00 1.00 0.00 5.00 0.00 0.00 1.00 
2571279.25 1096260.00 2264.13 12593 14135 22359 14392.00 1.00 1.00 1.00 0.00 4.00 0.00 0.00 1.00 
2571279.75 1096260.88 2265.36 13621 15677 23130 15677.00 1.00 1.00 1.00 0.00 4.00 0.00 0.00 1.00 
2571279.00 1096259.62 2267.43 9766 12336 19789 12336.00 1.00 1.00 1.00 0.00 21.00 0.00 0.00 1.00 
2571279.00 1096260.75 2263.83 16191 17733 24929 17990.00 1.00 1.00 1.00 0.00 4.00 0.00 0.00 1.00 
2571279.00 1096260.62 2262.65 19018 19532 25443 19789.00 1.00 1.00 1.00 0.00 4.00 0.00 0.00 1.00 
2571279.25 1096262.00 2262.10 17990 18504 24929 19018.00 1.00 1.00 1.00 0.00 4.00 0.00 0.00 1.00 
2571279.50 1096262.50 2262.10 17990 18761 25700 19275.00 1.00 1.00 1.00 0.00 4.00 0.00 0.00 1.00 
2571281.50 1096254.75 2272.67 13107 14392 22359 14649.00 1.00 1.00 1.00 0.00 5.00 0.00 0.00 1.00 
2571280.50 1096254.88 2268.52 9252 12079 20046 12079.00 1.00 1.00 1.00 0.00 20.00 0.00 0.00 1.00 
2571281.25 1096255.25 2269.21 11565 13621 21845 13878.00 1.00 1.00 1.00 0.00 4.00 0.00 0.00 1.00 
2571282.25 1096255.75 2269.65 7710 8995 16705 9252.00 1.00 1.00 1.00 0.00 4.00 0.00 0.00 1.00 
2571282.50 1096255.88 2270.35 13621 15420 23644 15677.00 1.00 1.00 1.00 0.00 4.00 0.00 0.00 1.00 
2571282.00 1096255.62 2272.57 14392 16191 23644 16448.00 1.00 1.00 1.00 0.00 5.00 0.00 0.00 1.00 
2571282.75 1096256.12 2270.64 17990 19275 26985 19532.00 1.00 1.00 1.00 0.00 4.00 0.00 0.00 1.00 
2571282.75 1096256.00 2272.02 19018 20303 27756 20560.00 1.00 1.00 1.00 0.00 5.00 0.00 0.00 1.00 
2571283.25 1096256.38 2271.83 16962 17476 24415 17990.00 1.00 1.00 1.00 0.00 4.00 0.00 0.00 1.00 
2571283.75 1096256.62 2272.02 18504 19275 26985 19789.00 1.00 1.00 1.00 0.00 4.00 0.00 0.00 1.00 
2571282.50 1096256.62 2272.52 17990 19532 26985 19789.00 1.00 1.00 1.00 0.00 21.00 0.00 0.00 1.00 
2571283.00 1096256.88 2271.43 19789 20817 28270 21074.00 1.00 1.00 1.00 0.00 4.00 0.00 0.00 1.00 
2571279.50 1096255.12 2269.41 9252 11822 19789 11822.00 1.00 1.00 1.00 0.00 21.00 0.00 0.00 1.00 
2571279.75 1096255.25 2269.95 8995 11565 19018 11565.00 1.00 1.00 1.00 0.00 5.00 0.00 0.00 1.00 
2571280.00 1096255.38 2270.49 9509 12336 20046 12336.00 1.00 1.00 1.00 0.00 5.00 0.00 0.00 1.00 
2571280.75 1096255.62 2270.54 11051 14135 22102 13878.00 1.00 1.00 1.00 0.00 5.00 0.00 0.00 1.00 
2571281.75 1096256.25 2269.41 10280 12336 20303 12593.00 1.00 1.00 1.00 0.00 4.00 0.00 0.00 1.00 
2571282.00 1096256.38 2269.95 10537 12336 20560 12593.00 1.00 1.00 1.00 0.00 20.00 0.00 0.00 1.00 
2571282.50 1096256.62 2270.59 15934 17990 26214 18247.00 1.00 1.00 1.00 0.00 4.00 0.00 0.00 1.00 
2571282.00 1096256.38 2272.32 16191 17990 25700 18247.00 1.00 1.00 1.00 0.00 5.00 0.00 0.00 1.00 
2571282.75 1096256.62 2271.18 17733 19018 26471 19275.00 1.00 1.00 1.00 0.00 4.00 0.00 0.00 1.00 
2571279.25 1096255.38 2269.11 10794 13364 21074 13364.00 1.00 1.00 1.00 0.00 5.00 0.00 0.00 1.00 
2571279.50 1096255.62 2269.51 10023 12850 21074 12850.00 1.00 1.00 1.00 0.00 5.00 0.00 0.00 1.00 
